NCOLS 192
NROWS 36
XLLCORNER 100.9998876
YLLCORNER 10.4166385
CELLSIZE 0.04166665 
NODATA_value -9999 
-9999 -9999 -9999 -9999 -9999 -9999 -9999 -9999 -9999 -9999 -9999 -9999 -9999 -9999 -9999 -9999 -9999 -9999 -9999 -9999 -9999 -9999 -9999 -9999 -9999 -9999 -9999 -9999 -9999 -9999 -9999 -9999 -9999 -9999 -9999 -9999 -9999 -9999 -9999 -9999 -9999 -9999 -9999 85.5199966430664 170.160003662109 318.320007324219 534.320007324219 447.239990234375 356 393.480010986328 331.559997558594 371.959991455078 419.040008544922 526.559997558594 610.200012207031 729.280029296875 775.760009765625 925.640014648438 897.200012207031 738.039978027344 940.039978027344 878.799987792969 926.440002441406 1088.76000976562 956.599975585938 893.719970703125 1008.35998535156 1055.76000976562 688.960021972656 739.359985351562 463.559997558594 323.839996337891 205.679992675781 581.400024414062 331.320007324219 170.919998168945 194.279998779297 211.360000610352 153.160003662109 134.479995727539 110.400001525879 111.279998779297 129.679992675781 103.720001220703 71.8000030517578 48.2799987792969 34.1599998474121 23.7600002288818 17.6800003051758 13.1999998092651 8.92000007629395 8.11999988555908 9.27999973297119 10.1999998092651 11.4399995803833 8.15999984741211 7.03999996185303 8.07999992370605 8.4399995803833 11.3199996948242 12.4399995803833 12.6000003814697 13.8000001907349 12.6800003051758 12.3199996948242 12.1999998092651 13.6800003051758 19.9200000762939 64.3199996948242 48.5999984741211 26.9599990844727 17.5200004577637 18.3600006103516 22.7999992370605 37.3199996948242 36.8800010681152 33.0800018310547 42.4000015258789 74.8399963378906 100.599998474121 121.23999786377 160.960006713867 131.399993896484 79.3199996948242 64.120002746582 67.5599975585938 90.2799987792969 92.4800033569336 67.0400009155273 64.2799987792969 71.1600036621094 74.0800018310547 84.9199981689453 118.199996948242 169.600006103516 165.440002441406 115.959999084473 92.2799987792969 93.7600021362305 102.839996337891 133.399993896484 152.080001831055 151.600006103516 197.800003051758 215.800003051758 229.119995117188 253.639999389648 274.200012207031 301 316.600006103516 307.399993896484 385.600006103516 473.239990234375 526.919982910156 533.640014648438 556.039978027344 594.640014648438 604 596.52001953125 507.279998779297 528.119995117188 545.200012207031 659.919982910156 714.159973144531 688.719970703125 747.440002441406 783.840026855469 818.799987792969 1084.16003417969 1143.31994628906 1041.64001464844 1115.16003417969 1192.43994140625 1021.20001220703 1137.80004882812 1129.47998046875 1112.11999511719 1473.28002929688 1381.07995605469 1252.80004882812 1375.19995117188 1419.80004882812 1177.07995605469 1314.56005859375 1159.47998046875 741.919982910156 315.839996337891 368.920013427734 396.799987792969 556.440002441406 242.160003662109 377.160003662109
-9999 -9999 -9999 -9999 -9999 -9999 -9999 -9999 -9999 -9999 -9999 -9999 -9999 -9999 -9999 -9999 -9999 -9999 -9999 -9999 -9999 -9999 -9999 -9999 -9999 -9999 -9999 -9999 -9999 -9999 -9999 -9999 -9999 -9999 -9999 -9999 -9999 -9999 -9999 -9999 -9999 -9999 -9999 -9999 122.080001831055 246.399993896484 565.799987792969 477.920013427734 289.839996337891 416.720001220703 324.399993896484 398.320007324219 440.519989013672 527.880004882812 560.200012207031 675.799987792969 725 876.440002441406 731.239990234375 793.880004882812 827.799987792969 715.799987792969 954.400024414062 686.599975585938 762 694.799987792969 1096 1169.16003417969 1120.35998535156 725.919982910156 295.440002441406 187.240005493164 149.080001831055 275.920013427734 184.520004272461 144 171 159.559997558594 137.440002441406 114.800003051758 112.919998168945 153.440002441406 222.240005493164 109.040000915527 72.2399978637695 52.1599998474121 37.439998626709 28.5599994659424 23.1200008392334 15.8000001907349 9.03999996185303 7.88000011444092 8.96000003814697 8.23999977111816 8.88000011444092 10.4399995803833 9.15999984741211 11.0799999237061 10.8000001907349 11.5200004577637 11.1999998092651 12.039999961853 11.1999998092651 12 11.8400001525879 12.4399995803833 10.9200000762939 17.3999996185303 64.6800003051758 73.879997253418 27.0400009155273 16.7600002288818 16.9599990844727 18.7600002288818 22 23.2399997711182 30.7600002288818 52.2000007629395 107 103.120002746582 77.4400024414062 134.600006103516 156 94.0400009155273 67.7600021362305 104.440002441406 152 136.919998168945 91.1999969482422 74.7200012207031 66.5599975585938 71.1999969482422 101.040000915527 145.520004272461 158.279998779297 169.720001220703 119.160003662109 91.4800033569336 92.120002746582 105.879997253418 140.160003662109 170.160003662109 199.520004272461 164.960006713867 196 217.559997558594 226.160003662109 263.399993896484 277.200012207031 270.959991455078 339.959991455078 417.720001220703 464.119995117188 519.960021972656 518.840026855469 559.239990234375 581.559997558594 598.159973144531 522.880004882812 540.440002441406 651.239990234375 681.159973144531 624.640014648438 602.559997558594 678.599975585938 642.760009765625 672.799987792969 699.359985351562 1455.47998046875 1320.07995605469 1030.59997558594 1053.9599609375 977.359985351562 973.840026855469 1003.84002685547 1045.59997558594 1005.64001464844 1293.56005859375 1406.07995605469 1207.11999511719 1413.83996582031 1435.43994140625 1110.59997558594 1072.88000488281 504 211.160003662109 163.800003051758 152.960006713867 219.360000610352 189.440002441406 254.399993896484 305.760009765625
-9999 -9999 -9999 -9999 -9999 -9999 -9999 -9999 -9999 -9999 -9999 -9999 -9999 -9999 -9999 -9999 -9999 -9999 -9999 -9999 -9999 -9999 -9999 -9999 -9999 -9999 -9999 -9999 -9999 -9999 -9999 -9999 -9999 -9999 -9999 -9999 -9999 -9999 -9999 -9999 -9999 -9999 -9999 -9999 -9999 140.479995727539 438.279998779297 444.040008544922 305.760009765625 364.279998779297 290.440002441406 379.119995117188 435.959991455078 462.920013427734 598.919982910156 629.919982910156 731.559997558594 710.840026855469 537.919982910156 703.640014648438 593.280029296875 696.760009765625 571.47998046875 372.359985351562 407.799987792969 777.760009765625 975.919982910156 948.760009765625 912.919982910156 516.119995117188 252.399993896484 155.320007324219 128.080001831055 128.720001220703 131.720001220703 125.120002746582 127.959999084473 129.279998779297 115.919998168945 100.839996337891 96.3199996948242 100.76000213623 109.040000915527 85.8399963378906 60.3199996948242 50.1599998474121 35.7999992370605 28.6000003814697 21.7600002288818 17.5599994659424 14.7600002288818 7.76000022888184 7.84000015258789 7.15999984741211 7.80000019073486 9 11.6800003051758 10.8400001525879 13.4399995803833 11.4799995422363 11.2799997329712 10.8000001907349 11.1599998474121 12.5200004577637 13.3599996566772 11.6000003814697 11.1999998092651 18.5200004577637 41.0800018310547 42.9199981689453 22.1200008392334 15.7600002288818 15.3199996948242 17.1200008392334 20.1200008392334 19 27.1200008392334 55.0800018310547 73.7600021362305 67.3199996948242 57.5999984741211 93.1600036621094 85.1600036621094 79.0400009155273 82.2799987792969 133 170.399993896484 147.399993896484 98.4400024414062 72.9599990844727 62.9199981689453 76.5199966430664 92.6800003051758 109.800003051758 117.76000213623 113 135.960006713867 100.959999084473 88.8000030517578 107.559997558594 142.520004272461 176.279998779297 210.039993286133 236.240005493164 245.679992675781 219.919998168945 220.520004272461 236.199996948242 243.960006713867 275.559997558594 334 392.600006103516 449 440.079986572266 518.52001953125 502.559997558594 484.760009765625 493.559997558594 575.799987792969 625.679992675781 681.440002441406 960.599975585938 975.840026855469 847.52001953125 685.880004882812 608.080017089844 591.919982910156 767.880004882812 1139.56005859375 1047.68005371094 1046.71997070312 1003 933.880004882812 872.719970703125 925.200012207031 952.280029296875 992.359985351562 1278.71997070312 1187.07995605469 1360.76000976562 1321.07995605469 1124.76000976562 1203.07995605469 1029.83996582031 405.160003662109 147.520004272461 126 122.040000915527 124.23999786377 257.640014648438 941.799987792969 958.559997558594
-9999 -9999 -9999 -9999 -9999 -9999 -9999 -9999 -9999 -9999 -9999 -9999 -9999 -9999 -9999 -9999 -9999 -9999 -9999 -9999 -9999 -9999 -9999 -9999 -9999 -9999 -9999 -9999 -9999 -9999 -9999 -9999 -9999 -9999 -9999 -9999 -9999 -9999 -9999 -9999 -9999 -9999 -9999 -9999 -9999 67.3600006103516 89.1999969482422 331.519989013672 331.720001220703 185.119995117188 246.199996948242 345.480010986328 354.279998779297 462.880004882812 513.159973144531 575 563.960021972656 472.799987792969 526.440002441406 486.359985351562 574.119995117188 590.719970703125 279 221.240005493164 492.880004882812 844 878.400024414062 463.839996337891 397.839996337891 244 270.119995117188 133.559997558594 122.559997558594 108.839996337891 111.839996337891 120 154.119995117188 136.600006103516 138.720001220703 113.160003662109 90.4400024414062 78.7200012207031 70.7200012207031 65.4800033569336 52.8400001525879 41.7599983215332 38.7200012207031 32.5200004577637 26.8799991607666 19.7999992370605 15.9200000762939 7.6399998664856 7.44000005722046 7.84000015258789 8.52000045776367 9.35999965667725 11.039999961853 10.7600002288818 13.3599996566772 11.4799995422363 10.5200004577637 11.039999961853 11.1199998855591 11.960000038147 12.3999996185303 13.3599996566772 12.8800001144409 14 18.7199993133545 21.2000007629395 15.1199998855591 14.039999961853 14.039999961853 17.1599998474121 17.9599990844727 19.1599998474121 26.5200004577637 29.6800003051758 38.5999984741211 41.6800003051758 47.2400016784668 62.5999984741211 50.5999984741211 53.6800003051758 66.5199966430664 115.160003662109 125.160003662109 118.400001525879 86.5199966430664 65.2799987792969 72.879997253418 79.6800003051758 67.6399993896484 67.7200012207031 71.2399978637695 89.1600036621094 133.720001220703 94 73.5199966430664 105.559997558594 138.039993286133 156 178.080001831055 189.279998779297 237.839996337891 236.759994506836 227.360000610352 237.800003051758 251.800003051758 265.799987792969 298.959991455078 356.600006103516 322.279998779297 325.880004882812 359.920013427734 416.600006103516 548.119995117188 556.359985351562 640.039978027344 644.039978027344 776.960021972656 1235.43994140625 1112.80004882812 911.52001953125 795.880004882812 703.840026855469 781 676 800.960021972656 950.119995117188 956.52001953125 980.320007324219 966.840026855469 864.47998046875 842.239990234375 870.119995117188 972.080017089844 1017.96002197266 1049.11999511719 1143 1034.16003417969 1056.88000488281 1276.43994140625 975.400024414062 499.679992675781 192.600006103516 116.879997253418 109.360000610352 252.399993896484 244.759994506836 572.080017089844 932.960021972656
-9999 -9999 -9999 -9999 -9999 -9999 -9999 -9999 -9999 -9999 -9999 -9999 -9999 -9999 -9999 -9999 -9999 -9999 -9999 -9999 -9999 -9999 -9999 -9999 -9999 -9999 -9999 -9999 -9999 -9999 -9999 -9999 -9999 -9999 -9999 -9999 -9999 61.7999992370605 -9999 -9999 -9999 -9999 -9999 -9999 -9999 -9999 73.7200012207031 99.879997253418 129.199996948242 179.759994506836 212.039993286133 312.760009765625 421.440002441406 429.200012207031 521.799987792969 454.559997558594 460.440002441406 574.080017089844 498.160003662109 475.399993896484 575 664.359985351562 241 267 829.239990234375 916.960021972656 895.080017089844 235 163.240005493164 152.720001220703 195.960006713867 133.559997558594 114.160003662109 108.279998779297 96.8000030517578 111.160003662109 145.160003662109 201.960006713867 211.320007324219 131.320007324219 108.080001831055 87.3199996948242 73.3600006103516 61.6800003051758 52.6399993896484 47 42.2400016784668 33.560001373291 25.3999996185303 19.3999996185303 14.1199998855591 7.48000001907349 8.23999977111816 9.23999977111816 9.84000015258789 9.92000007629395 9.72000026702881 10.5200004577637 11.6000003814697 10.5200004577637 10.3999996185303 12.6800003051758 11.3199996948242 11.1999998092651 13.3999996185303 13.3599996566772 12.6000003814697 12.4399995803833 14.0799999237061 20.3199996948242 13.1999998092651 13.2399997711182 14.8800001144409 14.6000003814697 16.1599998474121 18.1200008392334 21.0400009155273 26.1200008392334 30.2399997711182 32.7599983215332 44.8400001525879 47.1599998474121 40.560001373291 45.5999984741211 48.560001373291 61.8800010681152 71.8000030517578 75 72.6800003051758 74.5599975585938 64.6800003051758 65 55.0400009155273 58.9199981689453 73.1600036621094 86 100.959999084473 87.9599990844727 74.0400009155273 101.120002746582 123.879997253418 127.76000213623 134.479995727539 137.839996337891 179 241.720001220703 257.799987792969 254.800003051758 238.960006713867 268.359985351562 250.479995727539 302.119995117188 327.440002441406 364.799987792969 476.959991455078 523.200012207031 491.079986572266 514.52001953125 597.359985351562 683.320007324219 799.440002441406 1025.71997070312 930.799987792969 885.080017089844 845.159973144531 877.440002441406 922.080017089844 829.47998046875 661.840026855469 837.320007324219 886.47998046875 944.039978027344 970.799987792969 882.200012207031 843.919982910156 884.919982910156 914.200012207031 985.919982910156 1011.67999267578 1012.64001464844 1030.43994140625 1119.28002929688 899.039978027344 377.679992675781 212.679992675781 132.880004882812 97.3199996948242 84.120002746582 154.440002441406 196.360000610352 237.880004882812 262.359985351562
-9999 -9999 -9999 -9999 -9999 -9999 -9999 -9999 -9999 -9999 -9999 -9999 -9999 -9999 -9999 -9999 -9999 -9999 -9999 -9999 -9999 -9999 -9999 -9999 -9999 -9999 -9999 -9999 -9999 -9999 -9999 -9999 -9999 -9999 -9999 -9999 -9999 119.879997253418 -9999 -9999 -9999 -9999 -9999 -9999 -9999 -9999 49.560001373291 19.7199993133545 193.279998779297 283.119995117188 349.359985351562 320.720001220703 408.880004882812 451.200012207031 497.480010986328 333.880004882812 531.280029296875 499.279998779297 441.760009765625 538.119995117188 574.919982910156 464.239990234375 207.240005493164 217.839996337891 545.359985351562 753.719970703125 844.679992675781 425.679992675781 192.479995727539 129.759994506836 123.599998474121 120.800003051758 139.759994506836 107.23999786377 86.3199996948242 86.7200012207031 98.120002746582 117.080001831055 140.720001220703 135.360000610352 98.5999984741211 81.2399978637695 70.8000030517578 63.9599990844727 56.560001373291 47.8400001525879 41.1199989318848 34.439998626709 27.1599998474121 21.3199996948242 16.5200004577637 8.64000034332275 9 7.28000020980835 7.44000005722046 9.35999965667725 7.40000009536743 11.8400001525879 10.5200004577637 10.4399995803833 9.31999969482422 11 9.76000022888184 11.2799997329712 10.8400001525879 10.6000003814697 12.8800001144409 12.8400001525879 11.3999996185303 13.960000038147 12 11.8400001525879 14.1999998092651 14.039999961853 13.960000038147 16.6800003051758 19.2000007629395 22.3600006103516 25.6000003814697 27.2399997711182 38.7999992370605 36.1599998474121 38.3199996948242 41.8800010681152 41.2400016784668 42.4799995422363 48.560001373291 52.7200012207031 59.2000007629395 63.9599990844727 57.7200012207031 49.7599983215332 61.8800010681152 88.7600021362305 101.76000213623 134.479995727539 113.080001831055 78 74.6800003051758 82.1600036621094 104.720001220703 107.040000915527 125.519996643066 136.880004882812 156.639999389648 240.839996337891 268.040008544922 264.040008544922 278.320007324219 287.279998779297 239.080001831055 317.799987792969 320.760009765625 286.959991455078 390.440002441406 450.799987792969 509.720001220703 487.920013427734 624.640014648438 533.359985351562 887.200012207031 884.719970703125 869.52001953125 853.159973144531 876.400024414062 898.880004882812 954.039978027344 988.960021972656 855.200012207031 776.200012207031 798.919982910156 902.119995117188 867.960021972656 802.760009765625 855.47998046875 890.200012207031 903.840026855469 1024.64001464844 1073.11999511719 1095.88000488281 1179.16003417969 1147.76000976562 623.280029296875 319.399993896484 287.079986572266 167.600006103516 126.680000305176 64.9199981689453 46.4000015258789 52.5200004577637 67.0400009155273 37.8800010681152
-9999 -9999 -9999 -9999 -9999 -9999 -9999 -9999 -9999 -9999 -9999 -9999 -9999 -9999 -9999 -9999 -9999 -9999 -9999 -9999 -9999 -9999 -9999 -9999 -9999 -9999 -9999 -9999 -9999 -9999 -9999 -9999 -9999 -9999 -9999 -9999 -9999 116.080001831055 89.4800033569336 -9999 -9999 -9999 -9999 -9999 -9999 -9999 26.2399997711182 3.35999989509583 96.1999969482422 242.199996948242 292.480010986328 283.600006103516 345.480010986328 285.920013427734 281.920013427734 391 378.959991455078 390.559997558594 444.959991455078 355.079986572266 297.600006103516 216.880004882812 289.239990234375 311.440002441406 492.799987792969 605.599975585938 714.359985351562 414.480010986328 153.919998168945 169.759994506836 150.160003662109 157.679992675781 326.399993896484 171.279998779297 91.0400009155273 75.2399978637695 80.1999969482422 102.080001831055 188 122.279998779297 92.879997253418 74.879997253418 65.0800018310547 57 55.1199989318848 46.3600006103516 41.9199981689453 33.1599998474121 25.7199993133545 26.2800006866455 21.6800003051758 8.19999980926514 9.35999965667725 9.23999977111816 7.32000017166138 9 6.84000015258789 9.11999988555908 10.1599998474121 10.2799997329712 10.3199996948242 10.3199996948242 7.28000020980835 8.35999965667725 9.72000026702881 9.39999961853027 12.3999996185303 12.1199998855591 11.7600002288818 10.6000003814697 11.039999961853 10.6400003433228 10.6000003814697 14.8400001525879 14.1199998855591 14.7200002670288 20.1599998474121 26.1599998474121 22.3999996185303 26.4799995422363 28.1599998474121 30.1599998474121 33.2000007629395 34.439998626709 35.7599983215332 42.439998626709 44.2000007629395 54.0800018310547 62.4000015258789 64.0400009155273 52.5999984741211 46.7200012207031 58.2400016784668 84.2799987792969 101.279998779297 125.800003051758 121.080001831055 101.519996643066 64.4400024414062 74.9199981689453 83.9199981689453 104.599998474121 132.039993286133 125.360000610352 182.279998779297 249.080001831055 289.359985351562 286.320007324219 301.920013427734 271 188.919998168945 263.239990234375 231.520004272461 158.039993286133 295.079986572266 372.359985351562 483.519989013672 420.600006103516 502.320007324219 481.320007324219 823.880004882812 842 855.679992675781 848.52001953125 850.400024414062 857.919982910156 889 936.280029296875 957.599975585938 914.679992675781 859.400024414062 830.919982910156 799.47998046875 789.119995117188 884.719970703125 866.599975585938 926.840026855469 992.760009765625 1071.68005371094 1098.16003417969 1044.43994140625 959.599975585938 598.599975585938 421.679992675781 239.080001831055 318.119995117188 336.880004882812 147.479995727539 39.2400016784668 29.4799995422363 35.8800010681152 15.1599998474121
-9999 -9999 -9999 -9999 -9999 -9999 -9999 -9999 -9999 -9999 -9999 -9999 -9999 -9999 -9999 -9999 -9999 -9999 -9999 -9999 -9999 -9999 -9999 -9999 -9999 -9999 -9999 -9999 -9999 -9999 -9999 -9999 -9999 -9999 -9999 -9999 -9999 84.1600036621094 -9999 -9999 -9999 -9999 -9999 -9999 -9999 -9999 2.59999990463257 2.72000002861023 15.6800003051758 113.720001220703 168.320007324219 156.240005493164 194.960006713867 321.959991455078 335.480010986328 351.519989013672 371.040008544922 367.799987792969 347.920013427734 211.160003662109 227.160003662109 263.519989013672 353.040008544922 517.840026855469 648.320007324219 644.880004882812 586.760009765625 264.880004882812 285.399993896484 177 163.720001220703 189.960006713867 211 201.839996337891 110.800003051758 86.120002746582 72.7600021362305 86 102.480003356934 105.800003051758 88.2399978637695 79.6800003051758 67.2799987792969 55.0800018310547 49.3199996948242 43.5999984741211 43.0400009155273 34.6800003051758 25.8799991607666 18.9599990844727 13.0799999237061 13.039999961853 11.8000001907349 9.11999988555908 9.11999988555908 8.96000003814697 6.67999982833862 4.96000003814697 8.88000011444092 7.92000007629395 5.59999990463257 8.23999977111816 6.19999980926514 6.19999980926514 8.52000045776367 8.72000026702881 11.6000003814697 12.0799999237061 11.6800003051758 10.8400001525879 10.039999961853 9.11999988555908 11.039999961853 12.7200002670288 13.7200002670288 14.4799995422363 27.7999992370605 26.7600002288818 26.8799991607666 24.5599994659424 26.3199996948242 24 32.2000007629395 35.0400009155273 32.9199981689453 42.6800003051758 44.7599983215332 48.0400009155273 56.6399993896484 69.8399963378906 45.439998626709 37.4000015258789 46.2799987792969 74.7600021362305 96.6800003051758 99.4400024414062 96.2399978637695 77.7200012207031 59 75.3600006103516 121.23999786377 131.360000610352 94.879997253418 112.639999389648 140.520004272461 190.800003051758 298.600006103516 305.720001220703 310.679992675781 258.239990234375 203.479995727539 173.880004882812 152.199996948242 152.639999389648 266.160003662109 285.959991455078 217.839996337891 473.239990234375 329.200012207031 672 729.559997558594 810.47998046875 868.960021972656 861.039978027344 824.599975585938 802.280029296875 809.280029296875 919.640014648438 971.640014648438 956.760009765625 954.919982910156 1007.08001708984 899.47998046875 847.320007324219 930.280029296875 891 910 957.119995117188 981.239990234375 976.320007324219 1005.71997070312 828.679992675781 496.760009765625 445 500.160003662109 710.760009765625 300.760009765625 101.800003051758 39.6800003051758 13.4399995803833 12.6000003814697 6.40000009536743
-9999 -9999 -9999 -9999 -9999 -9999 -9999 -9999 -9999 -9999 -9999 -9999 -9999 -9999 -9999 -9999 -9999 -9999 -9999 -9999 -9999 -9999 -9999 -9999 -9999 -9999 -9999 -9999 -9999 -9999 -9999 -9999 -9999 -9999 -9999 -9999 -9999 -9999 -9999 -9999 -9999 -9999 -9999 -9999 -9999 -9999 -9999 2.64000010490417 3.40000009536743 42.9199981689453 142.479995727539 116.199996948242 238.520004272461 255.919998168945 212.759994506836 264.959991455078 300.399993896484 266.440002441406 198.119995117188 238.639999389648 306.679992675781 395.359985351562 489.959991455078 451.040008544922 334.679992675781 244.960006713867 111.23999786377 78.3600006103516 189.479995727539 292.839996337891 290.480010986328 220.679992675781 268 370.839996337891 195.800003051758 117.440002441406 77.120002746582 64.5599975585938 71.8399963378906 81.4000015258789 84 70.7200012207031 65 53.7599983215332 43.2799987792969 41.6399993896484 34.9599990844727 29.3600006103516 24.7999992370605 19.5200004577637 16.1599998474121 14.4799995422363 12.2799997329712 13 11.8000001907349 9.84000015258789 6.40000009536743 5.59999990463257 7.92000007629395 5.80000019073486 5.32000017166138 6.32000017166138 6.32000017166138 6 8.19999980926514 8.15999984741211 9.76000022888184 11.6800003051758 11.1599998474121 10.6800003051758 10.6400003433228 9.92000007629395 9.11999988555908 10.7600002288818 14.2799997329712 14.1599998474121 20.7199993133545 27.5200004577637 22.3199996948242 18.2000007629395 17.0799999237061 19.4799995422363 23.7999992370605 28.5200004577637 29.4400005340576 41.7200012207031 38.2799987792969 39.1599998474121 42.9599990844727 45.8800010681152 30.3600006103516 34.1599998474121 44.1599998474121 71.7200012207031 75.7200012207031 70.5599975585938 70.1999969482422 63 58.6399993896484 80 103.839996337891 99.1999969482422 98.120002746582 118.319999694824 146.880004882812 202.119995117188 258.799987792969 325.040008544922 303.920013427734 266.640014648438 198.960006713867 150.800003051758 138.039993286133 159.119995117188 202.720001220703 197.080001831055 151.360000610352 234.119995117188 350.160003662109 565.760009765625 851.119995117188 827.919982910156 834.039978027344 845.52001953125 807.640014648438 778.440002441406 802.47998046875 853.960021972656 911.679992675781 962.47998046875 983.880004882812 1355.52001953125 1158.0400390625 907.239990234375 960 948.400024414062 945.719970703125 936.559997558594 939.880004882812 969.640014648438 979.799987792969 1059.47998046875 1037.9599609375 999.679992675781 926.719970703125 744.119995117188 648.960021972656 440.320007324219 57.2799987792969 13.1999998092651 8.03999996185303 5.96000003814697
-9999 -9999 -9999 -9999 -9999 -9999 -9999 -9999 -9999 -9999 -9999 -9999 -9999 -9999 -9999 -9999 -9999 -9999 -9999 -9999 -9999 -9999 -9999 -9999 -9999 -9999 -9999 -9999 -9999 -9999 -9999 -9999 -9999 -9999 -9999 -9999 -9999 -9999 -9999 -9999 -9999 -9999 -9999 -9999 -9999 -9999 -9999 1.03999996185303 1.27999997138977 9.07999992370605 106.360000610352 59.8400001525879 124.199996948242 161.039993286133 138.199996948242 167.880004882812 242.160003662109 151.320007324219 198.160003662109 318.200012207031 350.519989013672 384.679992675781 397.600006103516 255 89.120002746582 65.0400009155273 41.3600006103516 55.8800010681152 94.120002746582 496.760009765625 539.359985351562 379.640014648438 525.559997558594 386.760009765625 193.199996948242 130.320007324219 95.2799987792969 66.120002746582 56.5999984741211 64 63.7599983215332 57.0400009155273 55.439998626709 50.2400016784668 43.4799995422363 36.1199989318848 36.3199996948242 30.2000007629395 25.2800006866455 20.5200004577637 18.8799991607666 15.6800003051758 11.6800003051758 9.92000007629395 10.0799999237061 10.8800001144409 9.68000030517578 9.27999973297119 6.55999994277954 7.03999996185303 6.32000017166138 4.55999994277954 5.92000007629395 3.83999991416931 7.80000019073486 7.80000019073486 9.07999992370605 10.1599998474121 11.8000001907349 11.6000003814697 10.7600002288818 10.8400001525879 10.6400003433228 11.6400003433228 13.8000001907349 14.8800001144409 16.6800003051758 14.8800001144409 17.4799995422363 13.1599998474121 27.6399993896484 21.2800006866455 22.7600002288818 25.9200000762939 24.8400001525879 26.3600006103516 33.3199996948242 33.4799995422363 41.9599990844727 41.8400001525879 30.3199996948242 40.7999992370605 58.1599998474121 72.3199996948242 80.2799987792969 57.5999984741211 60.4000015258789 64.8399963378906 60.6800003051758 69.879997253418 80.4400024414062 88.8399963378906 79.8399963378906 115.879997253418 172.679992675781 170.919998168945 215.320007324219 273.760009765625 311.959991455078 249.039993286133 185.800003051758 161.919998168945 145.320007324219 149.679992675781 146.559997558594 137.479995727539 149.839996337891 269.279998779297 445.440002441406 426.519989013672 949.719970703125 844.840026855469 797.599975585938 799.400024414062 759.080017089844 764.880004882812 786.760009765625 867.119995117188 966.719970703125 985.919982910156 1089.16003417969 1414.68005371094 1075.40002441406 764.119995117188 832.080017089844 912.440002441406 965.440002441406 870.840026855469 883.47998046875 876.440002441406 1005.03997802734 1026.43994140625 730.039978027344 739.52001953125 835.640014648438 650.440002441406 488.119995117188 355.720001220703 62.8400001525879 16.2000007629395 15.6000003814697 10.3599996566772
-9999 -9999 -9999 -9999 -9999 -9999 -9999 -9999 -9999 -9999 -9999 -9999 -9999 -9999 -9999 -9999 -9999 -9999 -9999 -9999 -9999 -9999 -9999 -9999 -9999 -9999 -9999 -9999 -9999 -9999 -9999 -9999 -9999 -9999 -9999 -9999 -9999 -9999 -9999 -9999 -9999 -9999 -9999 -9999 -9999 -9999 -9999 -9999 2.72000002861023 4.15999984741211 24.7600002288818 36.6399993896484 67.0400009155273 83.8000030517578 59.5999984741211 83.2799987792969 134.320007324219 166.679992675781 234.720001220703 288.079986572266 223.479995727539 288.959991455078 354.399993896484 177.679992675781 44.3199996948242 25.2800006866455 31.8400001525879 66.0400009155273 143.199996948242 371.720001220703 499 331.679992675781 484.079986572266 546.559997558594 277.679992675781 114.879997253418 86.8399963378906 80.9199981689453 60.0400009155273 50.3199996948242 50.9599990844727 47.7599983215332 44.7599983215332 42.8400001525879 36.6800003051758 32.7200012207031 29.2800006866455 26.7199993133545 23.8400001525879 21.0799999237061 18.3999996185303 15.2399997711182 12.4399995803833 9.80000019073486 9.47999954223633 9.88000011444092 8.68000030517578 7.71999979019165 8 6.71999979019165 4.88000011444092 4.96000003814697 4.3600001335144 2.51999998092651 7.40000009536743 5.15999984741211 8.80000019073486 9.92000007629395 11.4799995422363 10.6000003814697 10.960000038147 10.1599998474121 8.35999965667725 9 11.7600002288818 13.1999998092651 11.6800003051758 7.48000001907349 11.6400003433228 12.960000038147 16.8799991607666 18.4799995422363 21.2399997711182 23.1599998474121 24.1599998474121 24.6399993896484 23.9599990844727 30.4400005340576 30.2399997711182 29.3199996948242 30.2399997711182 46.4000015258789 47.4799995422363 58.1599998474121 80.879997253418 71.4800033569336 54.9599990844727 57.3600006103516 58.1199989318848 68.879997253418 88.0400009155273 87.8000030517578 81 134.279998779297 161.839996337891 151.440002441406 131.160003662109 201.800003051758 296.239990234375 296.079986572266 286.119995117188 200.039993286133 143.440002441406 164.160003662109 160 161.639999389648 295.320007324219 450.799987792969 354 586.119995117188 953.080017089844 912.47998046875 804.239990234375 919.640014648438 725.359985351562 752.640014648438 774.840026855469 852.359985351562 1036.52001953125 1184.59997558594 1356.11999511719 1209.56005859375 943.320007324219 593.52001953125 568.559997558594 433.160003662109 509.040008544922 482.880004882812 364.799987792969 489.040008544922 593.239990234375 701.599975585938 689.559997558594 403.359985351562 558.280029296875 459.559997558594 178.559997558594 70.0400009155273 37.9199981689453 25.6399993896484 59 78.7200012207031
-9999 -9999 -9999 -9999 -9999 -9999 -9999 -9999 -9999 -9999 -9999 -9999 -9999 -9999 -9999 -9999 -9999 -9999 -9999 -9999 -9999 -9999 -9999 -9999 -9999 -9999 -9999 -9999 -9999 -9999 -9999 -9999 -9999 -9999 -9999 -9999 -9999 -9999 -9999 -9999 -9999 -9999 -9999 -9999 -9999 -9999 -9999 -9999 -9999 2.96000003814697 13.1599998474121 13.8800001144409 14.8800001144409 42.6399993896484 27.4799995422363 97.879997253418 155.080001831055 141.880004882812 201.320007324219 229.039993286133 174.479995727539 212.559997558594 204.520004272461 199.880004882812 58.560001373291 24.1200008392334 97.5599975585938 175.080001831055 130.119995117188 268.399993896484 495.119995117188 290.160003662109 336.880004882812 417.160003662109 302.239990234375 96.4800033569336 67.3199996948242 61.5200004577637 55.0400009155273 50.6800003051758 51.2000007629395 49.8800010681152 40.2000007629395 39.5200004577637 36.4799995422363 36.2000007629395 31.2800006866455 26.4799995422363 22.7600002288818 19.3600006103516 16.5200004577637 14.5200004577637 12.5200004577637 9.80000019073486 8.23999977111816 7.40000009536743 7.44000005722046 7.80000019073486 5.55999994277954 5.07999992370605 5.76000022888184 5.55999994277954 3.79999995231628 3.51999998092651 7.19999980926514 5.03999996185303 9.03999996185303 9.31999969482422 10 10.6400003433228 9.96000003814697 9.60000038146973 10.3999996185303 10.039999961853 6.96000003814697 8.03999996185303 9.60000038146973 9.15999984741211 12.3599996566772 11.8400001525879 16.7600002288818 14.1199998855591 16.7999992370605 21.8400001525879 23.8400001525879 22 20.2399997711182 22 24.2800006866455 26.5599994659424 41.2000007629395 58.8800010681152 48.560001373291 53.6800003051758 64.120002746582 73.7600021362305 53.5200004577637 49.7999992370605 62.1199989318848 72.1999969482422 84 83.5999984741211 87.5599975585938 112.559997558594 122.440002441406 117.319999694824 129.039993286133 150.839996337891 239.600006103516 296.079986572266 300.720001220703 237.360000610352 166.559997558594 148.199996948242 144.639999389648 146.559997558594 184.800003051758 284.200012207031 216.759994506836 443.119995117188 517.719970703125 770.359985351562 792.47998046875 835 712.799987792969 740.840026855469 798.200012207031 851.080017089844 1087 1095.16003417969 1218.68005371094 876.919982910156 804.599975585938 671.679992675781 387.239990234375 232.119995117188 245.479995727539 302.799987792969 239.839996337891 230.800003051758 407.079986572266 639.719970703125 472.920013427734 268.200012207031 489.679992675781 421.160003662109 157.279998779297 78.1600036621094 46.2000007629395 47.560001373291 144.160003662109 107.879997253418
-9999 -9999 -9999 -9999 -9999 -9999 -9999 -9999 -9999 -9999 -9999 -9999 -9999 -9999 -9999 -9999 -9999 -9999 -9999 -9999 -9999 -9999 -9999 -9999 -9999 -9999 -9999 -9999 -9999 -9999 -9999 -9999 -9999 -9999 -9999 -9999 -9999 -9999 -9999 -9999 -9999 -9999 -9999 -9999 -9999 -9999 -9999 38.8400001525879 99.7600021362305 -9999 26.8400001525879 82.4400024414062 20.7999992370605 19.2800006866455 35.9599990844727 101.400001525879 86.879997253418 77.6800003051758 114.040000915527 175.119995117188 115.040000915527 127.120002746582 121.120002746582 209.960006713867 59.6399993896484 24.7199993133545 248.240005493164 391.239990234375 252.279998779297 253.479995727539 442.320007324219 302.600006103516 476.279998779297 343.559997558594 129.839996337891 79.120002746582 71.120002746582 68.3199996948242 61.0800018310547 57.3600006103516 84.4000015258789 64.0400009155273 49.7999992370605 60.0400009155273 57.1599998474121 64.4400024414062 46 34.9599990844727 28.9599990844727 23.1599998474121 18.5200004577637 14.6000003814697 11.3599996566772 9.52000045776367 6.6399998664856 5.80000019073486 7.67999982833862 5.03999996185303 4.03999996185303 4.23999977111816 4.23999977111816 6.11999988555908 4.15999984741211 5.11999988555908 7.3600001335144 5.59999990463257 8 9.31999969482422 8.76000022888184 9.72000026702881 11.2399997711182 10.4799995422363 9 7.88000011444092 7.80000019073486 7.6399998664856 7.6399998664856 5.71999979019165 7.44000005722046 9 10.8400001525879 14 14.7200002670288 110.919998168945 141.320007324219 23.1200008392334 20 21.7600002288818 19.4799995422363 51 41.5200004577637 49.1199989318848 40.7999992370605 48.3199996948242 50.1199989318848 51.560001373291 52.560001373291 49.9199981689453 58.9199981689453 71.5199966430664 74.4400024414062 75.9599990844727 90.6800003051758 99.8000030517578 91.2399978637695 90.879997253418 119.440002441406 148.919998168945 198.720001220703 210.559997558594 252.720001220703 198.279998779297 134.559997558594 120.680000305176 149.639999389648 156.720001220703 189.279998779297 300.160003662109 275.160003662109 258.600006103516 544.760009765625 910.919982910156 776.080017089844 975.840026855469 789.880004882812 788.799987792969 679.320007324219 930.119995117188 861.039978027344 951.799987792969 900.599975585938 879.440002441406 524.559997558594 631.640014648438 342.679992675781 182.919998168945 148 123.160003662109 150.360000610352 390.200012207031 667.359985351562 590.200012207031 326.040008544922 203.720001220703 433.760009765625 457.480010986328 401.359985351562 483.119995117188 215.080001831055 107.360000610352 343 62.7200012207031
-9999 -9999 -9999 -9999 -9999 -9999 -9999 -9999 -9999 -9999 -9999 -9999 -9999 -9999 -9999 -9999 -9999 -9999 -9999 -9999 -9999 -9999 -9999 -9999 -9999 -9999 -9999 -9999 -9999 -9999 -9999 -9999 -9999 -9999 -9999 -9999 -9999 -9999 -9999 -9999 -9999 -9999 -9999 -9999 -9999 -9999 -9999 -9999 107.199996948242 -9999 6.32000017166138 19.3600006103516 32.9599990844727 27.0400009155273 18.5200004577637 49.8800010681152 37.8800010681152 44.560001373291 36.439998626709 53.0800018310547 40.5200004577637 52.439998626709 76.0800018310547 183.360000610352 218.720001220703 19.8799991607666 183.399993896484 461.320007324219 466.239990234375 470.320007324219 574.280029296875 640.159973144531 696.159973144531 676.440002441406 386.600006103516 97.5199966430664 96.9599990844727 81.2399978637695 67.2799987792969 65.7200012207031 85.0400009155273 102.120002746582 105.440002441406 120.440002441406 70.9199981689453 145.440002441406 78.2799987792969 43.9599990844727 35.1599998474121 26.3199996948242 19.6000003814697 15.3999996185303 10.0799999237061 8.11999988555908 4.76000022888184 6.88000011444092 7.71999979019165 5.71999979019165 3.44000005722046 3.44000005722046 4.23999977111816 5.67999982833862 5 5.44000005722046 3.44000005722046 8.52000045776367 9.27999973297119 9.07999992370605 8.96000003814697 9.19999980926514 9.80000019073486 8.72000026702881 7.15999984741211 7.48000001907349 7.23999977111816 8.03999996185303 8.35999965667725 3.27999997138977 2.20000004768372 5.67999982833862 8.31999969482422 9.23999977111816 9.76000022888184 32.5200004577637 47.7200012207031 21.6000003814697 20.5599994659424 19.5200004577637 44.0400009155273 47.9599990844727 40.2000007629395 38.3199996948242 46.5200004577637 46.1199989318848 48.2799987792969 49.5999984741211 45.8400001525879 48.8800010681152 56.5200004577637 67.8399963378906 66.4000015258789 69.879997253418 82.3600006103516 87.8000030517578 79.1600036621094 87.1600036621094 102.440002441406 90.7600021362305 112.720001220703 194.360000610352 240.759994506836 160.679992675781 131.759994506836 138.080001831055 150.919998168945 174.520004272461 253.160003662109 432.839996337891 526.559997558594 436.959991455078 474.480010986328 635.719970703125 983.640014648438 1187.28002929688 1084.43994140625 722.239990234375 652.119995117188 845.280029296875 728.960021972656 731.960021972656 571.359985351562 678.799987792969 499.640014648438 391.399993896484 224 127.360000610352 115.919998168945 84.4000015258789 104.639999389648 490.320007324219 572.960021972656 636.52001953125 508.040008544922 203.279998779297 349.399993896484 143.720001220703 264.480010986328 378.279998779297 272.839996337891 36 402.559997558594 283.519989013672
-9999 -9999 -9999 -9999 -9999 -9999 -9999 -9999 -9999 -9999 -9999 -9999 -9999 -9999 -9999 -9999 -9999 -9999 -9999 -9999 -9999 -9999 -9999 -9999 -9999 -9999 -9999 -9999 -9999 -9999 -9999 -9999 -9999 -9999 -9999 -9999 -9999 -9999 -9999 -9999 -9999 -9999 -9999 -9999 -9999 -9999 -9999 -9999 225.759994506836 -9999 -9999 31.1599998474121 75.3600006103516 35.2400016784668 24.7199993133545 55.4799995422363 101.879997253418 53.7200012207031 50.9199981689453 24.3199996948242 10.3599996566772 18.6000003814697 53.9599990844727 118.559997558594 145.960006713867 18.7999992370605 170.479995727539 382.880004882812 497.160003662109 643.159973144531 733.52001953125 730.119995117188 720.679992675781 639.280029296875 385.799987792969 112.919998168945 101.639999389648 85.5599975585938 73 73.7200012207031 107.400001525879 222.919998168945 93.9599990844727 201.199996948242 284.440002441406 118.400001525879 70.4800033569336 44.6800003051758 35.2799987792969 26.4799995422363 38.9599990844727 42.7999992370605 10.5200004577637 7.51999998092651 3.16000008583069 6.32000017166138 6.19999980926514 8 4.84000015258789 3.88000011444092 4.80000019073486 4.96000003814697 6.15999984741211 6.15999984741211 4.03999996185303 8.27999973297119 8.80000019073486 9.03999996185303 9.52000045776367 8.4399995803833 7.76000022888184 8.27999973297119 7.76000022888184 7 6.44000005722046 6.11999988555908 4.92000007629395 4.15999984741211 5.88000011444092 4.28000020980835 5.76000022888184 10.1199998855591 10.1599998474121 14.9200000762939 16.1200008392334 18.8400001525879 17.5200004577637 20.7199993133545 20.4799995422363 33.8800010681152 31.3199996948242 28.9599990844727 41.8400001525879 43.7599983215332 50.8800010681152 51.5200004577637 50.8800010681152 48.1199989318848 52.5999984741211 56.7200012207031 59.2000007629395 61.4000015258789 63.7200012207031 69.0400009155273 84.8000030517578 82.879997253418 84.4800033569336 69.9199981689453 98.6800003051758 143.279998779297 162.880004882812 110.639999389648 111.440002441406 156.039993286133 153.960006713867 141.720001220703 199.199996948242 343.200012207031 515.559997558594 386.160003662109 632.799987792969 982.880004882812 884.239990234375 1066.52001953125 824.239990234375 644.960021972656 577.359985351562 665.760009765625 662.400024414062 575.840026855469 505.359985351562 285.160003662109 369.839996337891 292.320007324219 255.440002441406 77 81.4000015258789 50.6800003051758 42.3600006103516 158.399993896484 318.799987792969 480.640014648438 494.359985351562 240.600006103516 208.199996948242 55.9599990844727 11.6000003814697 -9999 -9999 -9999 103.559997558594 -9999
-9999 -9999 -9999 -9999 -9999 -9999 -9999 -9999 -9999 -9999 -9999 -9999 -9999 -9999 -9999 -9999 -9999 -9999 -9999 -9999 -9999 -9999 -9999 -9999 -9999 -9999 -9999 -9999 -9999 -9999 -9999 -9999 -9999 -9999 -9999 -9999 -9999 -9999 -9999 -9999 -9999 -9999 -9999 -9999 -9999 -9999 -9999 -9999 113.919998168945 -9999 27.6000003814697 61.1599998474121 105.919998168945 137.880004882812 34.3600006103516 33.1599998474121 112.080001831055 159 152.679992675781 56.1599998474121 46.3199996948242 67.120002746582 125.680000305176 183.679992675781 128.199996948242 17 131.720001220703 342.640014648438 434.640014648438 509.119995117188 677.119995117188 696.159973144531 636.039978027344 491.679992675781 262.399993896484 117.879997253418 106.959999084473 88.5199966430664 76.2399978637695 74.9199981689453 89.2799987792969 87.0400009155273 80.3199996948242 119.680000305176 123.559997558594 208.679992675781 202.399993896484 42.560001373291 31.3600006103516 24.5599994659424 24.0799999237061 19.7199993133545 8.4399995803833 6.23999977111816 6.59999990463257 3.92000007629395 6.15999984741211 6.48000001907349 5.11999988555908 4.07999992370605 4.28000020980835 4.19999980926514 6.55999994277954 5 4.23999977111816 10.8400001525879 9.47999954223633 9 8.47999954223633 7.84000015258789 7.19999980926514 8.11999988555908 7.71999979019165 6.88000011444092 5.84000015258789 5.6399998664856 4.84000015258789 4.71999979019165 5.03999996185303 4.88000011444092 1.72000002861023 5.19999980926514 3.48000001907349 12.1999998092651 14.6800003051758 21.5599994659424 16.4400005340576 22 15.8400001525879 24.7600002288818 32.7999992370605 21.5599994659424 41.1199989318848 47.8800010681152 44.5999984741211 54.439998626709 58.5999984741211 47.560001373291 50.0800018310547 51 52.5999984741211 50.560001373291 53.5200004577637 94.879997253418 81.8399963378906 80.4000015258789 82.7200012207031 62.4799995422363 60.1599998474121 76.6399993896484 79.3600006103516 90.1999969482422 114.879997253418 151 134.240005493164 114.919998168945 117.639999389648 122.839996337891 190.520004272461 244.279998779297 538.52001953125 683.119995117188 634 705.599975585938 407.799987792969 609.280029296875 625.559997558594 507.600006103516 578.239990234375 459.320007324219 409.320007324219 259.200012207031 147.960006713867 114.879997253418 60.7599983215332 53.7200012207031 58.1199989318848 35.7999992370605 29.8400001525879 23.3999996185303 17.8799991607666 54.7599983215332 306.799987792969 65.7200012207031 70.2799987792969 22.9200000762939 -9999 -9999 -9999 -9999 -9999 -9999
-9999 -9999 -9999 -9999 -9999 -9999 -9999 -9999 -9999 -9999 -9999 -9999 -9999 -9999 -9999 -9999 -9999 -9999 -9999 -9999 -9999 -9999 -9999 -9999 -9999 -9999 -9999 -9999 -9999 -9999 -9999 -9999 -9999 -9999 -9999 -9999 -9999 -9999 -9999 -9999 -9999 -9999 -9999 -9999 -9999 -9999 -9999 -9999 -9999 -9999 50.7599983215332 124.800003051758 133.360000610352 218.039993286133 65.0400009155273 44.2000007629395 96.9599990844727 125.800003051758 48.5999984741211 18.4400005340576 34.3600006103516 30.7999992370605 25.0400009155273 50.3199996948242 82.879997253418 35.560001373291 24.2000007629395 141.160003662109 244.160003662109 455.600006103516 420.480010986328 498.079986572266 456.959991455078 481.279998779297 236.720001220703 118.720001220703 107.160003662109 85.6800003051758 81.7200012207031 92.120002746582 81.7200012207031 75.5199966430664 77.2799987792969 75.5599975585938 76.6800003051758 59.9199981689453 57.4799995422363 36.6399993896484 27.2800006866455 18.8400001525879 12.4399995803833 8.4399995803833 10.9200000762939 8.5600004196167 6.07999992370605 4.67999982833862 6.67999982833862 5.48000001907349 3.83999991416931 3.35999989509583 4.15999984741211 4.80000019073486 6.23999977111816 4.96000003814697 7.59999990463257 10.8400001525879 7.84000015258789 7.80000019073486 7.92000007629395 7.3600001335144 6 6.11999988555908 6.59999990463257 5.51999998092651 6.07999992370605 5.59999990463257 4.44000005722046 4.96000003814697 5.03999996185303 5.40000009536743 5.6399998664856 3.07999992370605 2.96000003814697 6 13.6000003814697 19.9599990844727 15.6800003051758 17.9599990844727 21.7999992370605 23.2000007629395 28.2800006866455 28.6000003814697 20.8799991607666 39.2799987792969 30.1599998474121 49.8400001525879 56.3199996948242 49.6800003051758 46.2000007629395 45.2799987792969 43.439998626709 31.5200004577637 49.7599983215332 75.1600036621094 79.4800033569336 85.8000030517578 69.8399963378906 53.0400009155273 53 54.2799987792969 72.3600006103516 81.7200012207031 128.720001220703 169.160003662109 122.120002746582 108.23999786377 109.160003662109 111.080001831055 116.919998168945 120.959999084473 148.440002441406 358.519989013672 387.799987792969 379.480010986328 350.119995117188 392.640014648438 425.119995117188 409.320007324219 334.440002441406 304.040008544922 272.279998779297 166.559997558594 108.959999084473 72.9599990844727 55.2400016784668 44 48.3199996948242 27.8799991607666 18.6000003814697 11.2399997711182 7 12.2799997329712 33.7599983215332 51.7999992370605 51.7999992370605 9.19999980926514 -9999 -9999 -9999 -9999 -9999 -9999
-9999 -9999 -9999 -9999 -9999 -9999 -9999 -9999 -9999 -9999 -9999 -9999 -9999 -9999 -9999 -9999 -9999 -9999 -9999 -9999 -9999 -9999 -9999 -9999 -9999 -9999 -9999 -9999 -9999 -9999 -9999 -9999 -9999 -9999 -9999 -9999 -9999 -9999 -9999 -9999 -9999 -9999 -9999 -9999 -9999 -9999 -9999 -9999 -9999 -9999 5.71999979019165 48.439998626709 150.039993286133 211.720001220703 89.4800033569336 38.439998626709 32.9199981689453 95.2799987792969 25.1200008392334 6.3600001335144 7.96000003814697 12 9.03999996185303 14.5600004196167 34.5999984741211 88 9.52000045776367 9.96000003814697 85.4400024414062 222.639999389648 152.960006713867 142.559997558594 109.040000915527 227.559997558594 259.440002441406 124.959999084473 98.0800018310547 92.8399963378906 108.319999694824 102.559997558594 78.5999984741211 72.9199981689453 83.5599975585938 51.0800018310547 51.7599983215332 42.439998626709 38 29.6000003814697 21.4799995422363 14.0799999237061 9.5600004196167 11.2399997711182 8.07999992370605 8.64000034332275 7.80000019073486 5.15999984741211 5.88000011444092 7.11999988555908 5.23999977111816 3.88000011444092 3.92000007629395 4.80000019073486 5.19999980926514 4.67999982833862 7.40000009536743 6.88000011444092 6.44000005722046 6.11999988555908 6.32000017166138 6.84000015258789 6 5.6399998664856 5.44000005722046 5.48000001907349 4.80000019073486 4.84000015258789 4.48000001907349 5.19999980926514 4.92000007629395 5.6399998664856 6.32000017166138 6.59999990463257 4.92000007629395 3.07999992370605 9.03999996185303 12.8000001907349 13.3599996566772 14.3999996185303 18.0799999237061 11.6800003051758 28.2399997711182 27.0799999237061 23.5599994659424 23.4799995422363 23.3199996948242 39.1599998474121 48.2000007629395 52.6399993896484 59.6800003051758 50.2400016784668 55.2400016784668 36.3600006103516 38.5999984741211 58.4799995422363 83.3199996948242 89.9199981689453 60.6800003051758 53.0800018310547 54.6399993896484 59.1599998474121 57.2799987792969 89.6399993896484 139.559997558594 123.839996337891 110.559997558594 106.800003051758 111.680000305176 119.599998474121 114.519996643066 116.199996948242 121.279998779297 187.240005493164 240.320007324219 251.240005493164 340.160003662109 365.320007324219 401.959991455078 435.200012207031 342.600006103516 215.160003662109 147.800003051758 120.319999694824 70.0800018310547 63.0400009155273 60.0800018310547 87.5599975585938 59.9599990844727 85.6399993896484 65.9599990844727 58.7999992370605 52.7200012207031 6.6399998664856 6.48000001907349 -9999 8.84000015258789 -9999 -9999 -9999 -9999 -9999 -9999 -9999
-9999 -9999 -9999 -9999 -9999 -9999 -9999 -9999 -9999 -9999 -9999 -9999 -9999 -9999 -9999 -9999 -9999 -9999 -9999 -9999 -9999 -9999 -9999 -9999 -9999 -9999 -9999 -9999 -9999 -9999 -9999 -9999 -9999 -9999 -9999 -9999 -9999 -9999 -9999 -9999 -9999 -9999 -9999 -9999 -9999 -9999 -9999 -9999 -9999 -9999 -9999 18.0799999237061 147.720001220703 160.320007324219 60.7599983215332 44.7200012207031 28 46.2400016784668 21.4400005340576 4.3600001335144 -9999 -9999 17.9200000762939 12.1999998092651 7.3600001335144 8.72000026702881 26.7600002288818 5.92000007629395 26.8799991607666 43.9199981689453 17.2399997711182 36.1599998474121 60.3199996948242 247.679992675781 247.559997558594 129.080001831055 104.23999786377 111.160003662109 195.559997558594 94 72.5199966430664 60.5999984741211 51.1199989318848 42.6800003051758 36.7999992370605 34.0400009155273 30.6399993896484 25 18.3999996185303 12.7600002288818 8.64000034332275 6.67999982833862 6.11999988555908 8.4399995803833 7.96000003814697 5.67999982833862 4.40000009536743 6.84000015258789 5.67999982833862 5.55999994277954 4.76000022888184 4.55999994277954 4.40000009536743 3.44000005722046 6.80000019073486 6.55999994277954 5.11999988555908 4.59999990463257 5.96000003814697 7.32000017166138 6.48000001907349 5.19999980926514 4.6399998664856 4.15999984741211 3.59999990463257 4.15999984741211 4.92000007629395 5 5.03999996185303 5.07999992370605 5.3600001335144 5.40000009536743 4.92000007629395 4.11999988555908 4.23999977111816 4.15999984741211 10.8400001525879 12.3199996948242 14.3999996185303 15.039999961853 11.2799997329712 12.3199996948242 26.7199993133545 23.7199993133545 14.2399997711182 33.5999984741211 39.8400001525879 45.5200004577637 59 60.1599998474121 76.4000015258789 53.4799995422363 39.5200004577637 39.1199989318848 64.6399993896484 79.2399978637695 53.2799987792969 53 76 117.480003356934 62 89.1999969482422 143.199996948242 125.400001525879 121.639999389648 125.839996337891 126.160003662109 131.360000610352 115.559997558594 131.240005493164 119.680000305176 158.600006103516 190.880004882812 292.200012207031 319.119995117188 435.880004882812 792.47998046875 635.640014648438 474.320007324219 152.800003051758 78.1600036621094 62.560001373291 53.1199989318848 53.439998626709 116.680000305176 164.039993286133 165.080001831055 157.559997558594 144.399993896484 120.199996948242 -9999 -9999 -9999 -9999 -9999 -9999 -9999 -9999 -9999 -9999 -9999 -9999
-9999 -9999 -9999 -9999 -9999 -9999 -9999 -9999 -9999 -9999 -9999 -9999 -9999 -9999 -9999 -9999 -9999 -9999 -9999 -9999 -9999 -9999 -9999 -9999 -9999 -9999 -9999 -9999 -9999 -9999 -9999 -9999 -9999 -9999 -9999 -9999 -9999 -9999 -9999 -9999 -9999 -9999 -9999 -9999 -9999 -9999 -9999 -9999 -9999 -9999 -9999 17.7999992370605 73.7600021362305 140.399993896484 47.560001373291 38.560001373291 34.0400009155273 29.9200000762939 11.039999961853 -9999 -9999 -9999 8.76000022888184 11.1599998474121 5.76000022888184 3.40000009536743 27.3999996185303 6.48000001907349 31.0799999237061 33.1599998474121 21.3199996948242 153.880004882812 235.800003051758 340.119995117188 329.160003662109 147.600006103516 91.2799987792969 109.360000610352 252.759994506836 103.76000213623 75.6399993896484 71.4400024414062 49.439998626709 39.439998626709 32.439998626709 27.8400001525879 23.8400001525879 20.4400005340576 16.2399997711182 12.5200004577637 8.19999980926514 7.71999979019165 4 7.11999988555908 7.48000001907349 3.6800000667572 4.3600001335144 6.40000009536743 4.3600001335144 3.96000003814697 4.88000011444092 4.48000001907349 4.48000001907349 5.03999996185303 5.3600001335144 5.44000005722046 4.88000011444092 5.40000009536743 5.32000017166138 6.88000011444092 6.59999990463257 5.76000022888184 4.44000005722046 4.15999984741211 3.75999999046326 3.88000011444092 5.11999988555908 4.96000003814697 4.96000003814697 5.15999984741211 5.51999998092651 4.84000015258789 3.79999995231628 3.88000011444092 3.83999991416931 2.92000007629395 5.03999996185303 10.4799995422363 13.3999996185303 14.1599998474121 16.7999992370605 21.0400009155273 12.2399997711182 21.0799999237061 10.3199996948242 27.0400009155273 33.8800010681152 32 53.1599998474121 52.6399993896484 45 38.4000015258789 26 28.3999996185303 49.8400001525879 58.4799995422363 53.4000015258789 58.7999992370605 94.3600006103516 130.839996337891 67.8000030517578 84.9599990844727 117.040000915527 114.720001220703 108.680000305176 105.599998474121 116.839996337891 123.76000213623 116.23999786377 151.160003662109 135.080001831055 242.160003662109 681.960021972656 379.679992675781 193.479995727539 244.279998779297 576.880004882812 679.599975585938 284.320007324219 50.3199996948242 35.7599983215332 48.439998626709 39.2799987792969 84.4000015258789 139.399993896484 138.360000610352 138.320007324219 136.639999389648 110.519996643066 41.1599998474121 -9999 -9999 -9999 -9999 -9999 -9999 -9999 -9999 -9999 -9999 -9999 -9999
-9999 -9999 -9999 -9999 -9999 -9999 -9999 -9999 -9999 -9999 -9999 -9999 -9999 -9999 -9999 -9999 -9999 -9999 -9999 -9999 -9999 -9999 -9999 -9999 -9999 -9999 -9999 -9999 -9999 -9999 -9999 -9999 -9999 -9999 -9999 -9999 -9999 -9999 -9999 -9999 -9999 -9999 -9999 -9999 -9999 -9999 -9999 -9999 -9999 -9999 20 63.2000007629395 77.2799987792969 122.559997558594 28.7999992370605 16.4400005340576 10.8800001144409 65.9599990844727 28.0799999237061 -9999 -9999 -9999 -9999 -9999 4.84000015258789 6.80000019073486 35.4000015258789 12.1199998855591 17.9200000762939 7.3600001335144 164.119995117188 717.239990234375 730.559997558594 691.960021972656 301.160003662109 185.199996948242 94.3199996948242 94 176.600006103516 353.399993896484 209.399993896484 107.120002746582 55.4799995422363 43.6800003051758 41.2799987792969 30.3999996185303 23.0400009155273 19.3999996185303 15.8400001525879 11.8400001525879 6.88000011444092 4.59999990463257 2.27999997138977 5.59999990463257 6.3600001335144 3.35999989509583 2.51999998092651 5.80000019073486 3.88000011444092 3.79999995231628 4.55999994277954 4.32000017166138 3.75999999046326 3.16000008583069 4.76000022888184 5.32000017166138 4.44000005722046 4.44000005722046 5.80000019073486 6.59999990463257 5.15999984741211 5.19999980926514 4.88000011444092 4.40000009536743 3.35999989509583 3.59999990463257 4.03999996185303 5.76000022888184 5.51999998092651 5.67999982833862 5.32000017166138 5 4.88000011444092 4.88000011444092 2.59999990463257 2.55999994277954 2.79999995231628 5.11999988555908 10.3199996948242 10.6800003051758 12.8000001907349 13.1199998855591 13.8800001144409 9.19999980926514 7.6399998664856 26.6800003051758 34.0800018310547 26.7199993133545 31.5599994659424 11.5600004196167 20.2399997711182 19.2399997711182 15.960000038147 41.9199981689453 43.1599998474121 69.4400024414062 83.2799987792969 97.3199996948242 92.9199981689453 91.120002746582 83.5599975585938 83.9199981689453 94.5599975585938 100.120002746582 89.8399963378906 92.3199996948242 108.559997558594 124.76000213623 128.320007324219 131.399993896484 141.839996337891 517 850.239990234375 589.559997558594 189.479995727539 166.839996337891 139.399993896484 382.119995117188 258.279998779297 97.6800003051758 38.6800003051758 27.1200008392334 54.2400016784668 127.800003051758 177.479995727539 152.199996948242 133.720001220703 85.6399993896484 41.6399993896484 -9999 -9999 -9999 -9999 -9999 -9999 -9999 -9999 -9999 -9999 -9999 -9999 -9999
-9999 -9999 -9999 -9999 -9999 -9999 -9999 -9999 -9999 -9999 -9999 -9999 -9999 -9999 -9999 -9999 -9999 -9999 -9999 -9999 -9999 -9999 -9999 -9999 -9999 -9999 -9999 -9999 -9999 -9999 -9999 -9999 -9999 -9999 -9999 -9999 -9999 -9999 -9999 -9999 -9999 -9999 -9999 -9999 -9999 -9999 -9999 -9999 -9999 -9999 -9999 43.1599998474121 46.560001373291 69.4800033569336 35.8800010681152 14.039999961853 21.9200000762939 43.0800018310547 -9999 -9999 -9999 -9999 -9999 -9999 13.3999996185303 35.4000015258789 31.8400001525879 21.9200000762939 45.4799995422363 7.80000019073486 151.600006103516 737.119995117188 776.200012207031 716 315.320007324219 116.199996948242 122.23999786377 79.7200012207031 173.679992675781 430.359985351562 329.480010986328 131.600006103516 62.6800003051758 86.879997253418 171.800003051758 39.9599990844727 24.2399997711182 17.6399993896484 14.039999961853 10.6000003814697 6.92000007629395 4.07999992370605 2.44000005722046 3.55999994277954 3.55999994277954 3.48000001907349 2.3199999332428 5.32000017166138 3.48000001907349 3.24000000953674 4.07999992370605 2.27999997138977 3.40000009536743 5.3600001335144 6.07999992370605 4.92000007629395 3.83999991416931 5.32000017166138 6.48000001907349 5.11999988555908 3.6800000667572 4.15999984741211 3.75999999046326 2.83999991416931 2.27999997138977 3.48000001907349 3.79999995231628 5.96000003814697 6.15999984741211 5.3600001335144 5.23999977111816 5.84000015258789 5.19999980926514 4.03999996185303 2.48000001907349 3 1.96000003814697 4.80000019073486 5.3600001335144 9.19999980926514 9.84000015258789 8.39999961853027 14.6400003433228 9.68000030517578 2.59999990463257 18.1200008392334 30.5599994659424 20.3199996948242 9.39999961853027 4.76000022888184 15.7200002670288 11.8800001144409 9.19999980926514 24.0799999237061 41.1199989318848 68.7200012207031 100.519996643066 125.080001831055 128.119995117188 115.360000610352 110.080001831055 96 97.8399963378906 97.7600021362305 91.6800003051758 93.3199996948242 111.440002441406 137.440002441406 137.839996337891 163.119995117188 205.960006713867 258.399993896484 464.320007324219 200.720001220703 131.639999389648 127.040000915527 56.8800010681152 48.8400001525879 50.439998626709 36.6800003051758 23.7199993133545 15.6800003051758 67.7200012207031 92.6399993896484 117.800003051758 124.599998474121 48.0400009155273 -9999 -9999 -9999 -9999 -9999 -9999 -9999 -9999 -9999 -9999 -9999 -9999 -9999 -9999 -9999
-9999 -9999 -9999 -9999 -9999 -9999 -9999 -9999 -9999 -9999 -9999 -9999 -9999 -9999 -9999 -9999 -9999 -9999 -9999 -9999 -9999 -9999 -9999 -9999 -9999 -9999 -9999 -9999 -9999 -9999 -9999 -9999 -9999 -9999 -9999 -9999 -9999 -9999 -9999 -9999 -9999 -9999 -9999 -9999 -9999 -9999 -9999 -9999 -9999 -9999 -9999 123 73.879997253418 34 36.7200012207031 19.7199993133545 43.0400009155273 34.8400001525879 -9999 -9999 -9999 -9999 -9999 -9999 9.92000007629395 30.9599990844727 57.560001373291 27.5599994659424 48.1599998474121 13.6000003814697 138.360000610352 701.159973144531 726.400024414062 635.960021972656 319.839996337891 100.919998168945 93.0800018310547 54.1199989318848 115.879997253418 321.720001220703 259.359985351562 151.039993286133 59 68.6800003051758 156 56.1599998474121 25 14.6000003814697 13.960000038147 13.6800003051758 8.64000034332275 4.80000019073486 3.83999991416931 2.07999992370605 2.20000004768372 4.3600001335144 2.88000011444092 4.3600001335144 3.27999997138977 2.40000009536743 3.83999991416931 2.75999999046326 3.24000000953674 5.19999980926514 5.23999977111816 5.92000007629395 4.59999990463257 3.11999988555908 4 3.35999989509583 2.72000002861023 2.96000003814697 2.59999990463257 2.59999990463257 1.91999995708466 3.24000000953674 4.71999979019165 5.96000003814697 5.88000011444092 5.80000019073486 5.3600001335144 4.23999977111816 4.23999977111816 2.72000002861023 1.63999998569489 1.72000002861023 1.75999999046326 5.59999990463257 3.27999997138977 4.32000017166138 4.03999996185303 9.80000019073486 8.39999961853027 4.67999982833862 6.03999996185303 6.59999990463257 22.7600002288818 29.6000003814697 5.23999977111816 10.2799997329712 24 43 35.1599998474121 36.560001373291 49.5200004577637 65 94 172.559997558594 218.360000610352 157.639999389648 131.880004882812 117.480003356934 124.400001525879 138.679992675781 105.76000213623 111.440002441406 119.839996337891 127.959999084473 126.720001220703 247.800003051758 275.600006103516 196.639999389648 154.559997558594 154.839996337891 102 58.2000007629395 39.6800003051758 33.0400009155273 23.4799995422363 18.3600006103516 9.11999988555908 9.23999977111816 83.9599990844727 87.4000015258789 97.2799987792969 115.080001831055 -9999 -9999 -9999 -9999 -9999 -9999 -9999 -9999 -9999 -9999 -9999 -9999 -9999 -9999 -9999 -9999
-9999 -9999 -9999 -9999 -9999 -9999 -9999 -9999 -9999 -9999 -9999 -9999 -9999 -9999 -9999 -9999 -9999 -9999 -9999 -9999 -9999 -9999 -9999 -9999 -9999 -9999 -9999 -9999 -9999 -9999 -9999 -9999 -9999 -9999 -9999 -9999 -9999 -9999 -9999 -9999 -9999 -9999 -9999 -9999 -9999 -9999 -9999 -9999 -9999 -9999 25.5599994659424 66.6399993896484 55.0800018310547 11.039999961853 8.52000045776367 17.2800006866455 47.7200012207031 16.3999996185303 -9999 -9999 -9999 -9999 -9999 -9999 -9999 27.4799995422363 56.6399993896484 55 75.0400009155273 21.2800006866455 74.4400024414062 649.840026855469 657.320007324219 535.840026855469 263.640014648438 114.919998168945 92.2399978637695 49.2400016784668 59.3600006103516 93.6399993896484 129.399993896484 72 49 83.2799987792969 108.360000610352 65.5199966430664 23.8799991607666 12.4799995422363 10.3599996566772 12.6000003814697 8.60000038146973 6.51999998092651 7.15999984741211 4 2.44000005722046 5.55999994277954 2.20000004768372 4.23999977111816 3.55999994277954 2.64000010490417 3.79999995231628 2.24000000953674 3.55999994277954 4.03999996185303 4.19999980926514 4.11999988555908 3.83999991416931 2.79999995231628 2.16000008583069 2.59999990463257 2.88000011444092 2.24000000953674 2.20000004768372 2.24000000953674 2.3199999332428 3.24000000953674 5.03999996185303 5.6399998664856 5.96000003814697 5.15999984741211 4.3600001335144 3.83999991416931 2.55999994277954 2.72000002861023 1.60000002384186 1.48000001907349 1.60000002384186 1.60000002384186 3.88000011444092 4 1.72000002861023 1.67999994754791 5.84000015258789 2.6800000667572 1.32000005245209 0.959999978542328 6.44000005722046 28.4799995422363 15.7200002670288 3.6800000667572 12.039999961853 37.0800018310547 47.7200012207031 50.2400016784668 67.3199996948242 72.3199996948242 104.279998779297 164.399993896484 219.800003051758 188.360000610352 149.479995727539 129.639999389648 207.800003051758 278.440002441406 135.880004882812 143.440002441406 145.279998779297 111.559997558594 105.040000915527 113.120002746582 135.320007324219 150.839996337891 117.559997558594 135.759994506836 162.279998779297 63.2400016784668 50.0800018310547 37.560001373291 18.7999992370605 8.76000022888184 4.15999984741211 15.8800001144409 -9999 -9999 -9999 -9999 -9999 -9999 -9999 -9999 -9999 -9999 -9999 -9999 -9999 -9999 -9999 -9999 -9999 -9999 -9999 -9999
-9999 -9999 -9999 -9999 -9999 -9999 -9999 -9999 -9999 -9999 -9999 -9999 -9999 -9999 -9999 -9999 -9999 -9999 -9999 -9999 -9999 -9999 -9999 -9999 -9999 -9999 -9999 -9999 -9999 -9999 -9999 -9999 -9999 -9999 -9999 -9999 -9999 -9999 -9999 -9999 -9999 -9999 -9999 -9999 -9999 -9999 -9999 -9999 -9999 -9999 -9999 27.1200008392334 12.1999998092651 -9999 -9999 -9999 13.2399997711182 21.1200008392334 -9999 -9999 -9999 -9999 -9999 -9999 -9999 11.0799999237061 63.560001373291 28.8400001525879 42.6800003051758 150 535.719970703125 497.519989013672 537.080017089844 517.599975585938 289.799987792969 68.2399978637695 64.4400024414062 31.3600006103516 31.1200008392334 43.3199996948242 74.4400024414062 52.4000015258789 40.0800018310547 42.9199981689453 107.279998779297 40.7599983215332 21.3600006103516 10.960000038147 7.48000001907349 11.2399997711182 13.6800003051758 7.59999990463257 6.92000007629395 5.11999988555908 2.59999990463257 1.51999998092651 1.51999998092651 3.16000008583069 3.64000010490417 2.96000003814697 3.88000011444092 2.79999995231628 3.44000005722046 3.20000004768372 2.07999992370605 2.16000008583069 2.55999994277954 3.03999996185303 2.64000010490417 2.48000001907349 2.16000008583069 2 2.03999996185303 2.35999989509583 2.40000009536743 2.96000003814697 3.92000007629395 4.19999980926514 4.3600001335144 3.64000010490417 3.11999988555908 2.79999995231628 2.03999996185303 1.87999999523163 1.08000004291534 1.20000004768372 1.24000000953674 1.32000005245209 0.879999995231628 2.55999994277954 3.3199999332428 2.51999998092651 0.800000011920929 1.63999998569489 4.76000022888184 3.79999995231628 2.92000007629395 16.3600006103516 27.4400005340576 9.80000019073486 6.51999998092651 12.039999961853 29.6399993896484 45.560001373291 53.5200004577637 66.4400024414062 91.3199996948242 125.959999084473 186.279998779297 211.440002441406 175 136.160003662109 118.879997253418 130.399993896484 134.639999389648 116.720001220703 102.279998779297 89.9599990844727 109.519996643066 110.879997253418 112.400001525879 104.480003356934 82.7200012207031 95.0800018310547 116.639999389648 78.7600021362305 43.3199996948242 38.0800018310547 69.3199996948242 40.4000015258789 -9999 -9999 -9999 -9999 -9999 -9999 -9999 -9999 -9999 -9999 -9999 -9999 -9999 -9999 -9999 -9999 -9999 -9999 -9999 -9999 -9999 -9999
-9999 -9999 -9999 -9999 -9999 -9999 -9999 -9999 -9999 -9999 -9999 -9999 -9999 -9999 -9999 -9999 -9999 -9999 -9999 -9999 -9999 -9999 -9999 -9999 -9999 -9999 -9999 -9999 -9999 -9999 -9999 -9999 -9999 -9999 -9999 -9999 -9999 -9999 -9999 -9999 -9999 -9999 -9999 -9999 -9999 -9999 -9999 -9999 -9999 -9999 -9999 -9999 -9999 -9999 -9999 -9999 -9999 -9999 -9999 -9999 -9999 -9999 -9999 -9999 -9999 16.7199993133545 43.439998626709 9.07999992370605 14.8800001144409 306.920013427734 783.640014648438 563.159973144531 504.519989013672 431.559997558594 324.040008544922 89.5199966430664 36.2799987792969 25.7999992370605 32.8800010681152 52.3600006103516 79.7600021362305 49.439998626709 35.0400009155273 32.7200012207031 32.7200012207031 27.1599998474121 21.0799999237061 10.5200004577637 6.84000015258789 6.23999977111816 7.48000001907349 7.6399998664856 6.71999979019165 5.11999988555908 2.83999991416931 1.63999998569489 2.11999988555908 2.79999995231628 3.64000010490417 2.72000002861023 3.88000011444092 3.40000009536743 1.96000003814697 2.20000004768372 2.27999997138977 1.51999998092651 2.24000000953674 3.27999997138977 2.35999989509583 2.24000000953674 1.87999999523163 2.55999994277954 2.55999994277954 3.03999996185303 3.16000008583069 3.03999996185303 3.16000008583069 3.44000005722046 3.03999996185303 2.72000002861023 2.35999989509583 2.07999992370605 1.60000002384186 1.08000004291534 0.800000011920929 0.759999990463257 0.479999989271164 0.360000014305115 0.479999989271164 1.72000002861023 2.27999997138977 2.20000004768372 0.720000028610229 3.07999992370605 7.6399998664856 5.92000007629395 2.27999997138977 2.35999989509583 17.2800006866455 14.7200002670288 1.72000002861023 6.03999996185303 36.3600006103516 50.2000007629395 65.4800033569336 63.4000015258789 76.879997253418 132.080001831055 203.440002441406 254.720001220703 217.320007324219 157.559997558594 119.720001220703 124.839996337891 108.440002441406 107.360000610352 93.6800003051758 71.1600036621094 75.2799987792969 74.879997253418 101.160003662109 88.1999969482422 49.4000015258789 42.5999984741211 44.560001373291 47.5999984741211 45.2000007629395 80.1999969482422 79.9199981689453 -9999 -9999 -9999 -9999 -9999 -9999 -9999 -9999 -9999 -9999 -9999 -9999 -9999 -9999 -9999 -9999 -9999 -9999 -9999 -9999 -9999 -9999 -9999
-9999 -9999 -9999 -9999 -9999 -9999 -9999 -9999 -9999 -9999 -9999 -9999 -9999 -9999 -9999 -9999 -9999 -9999 -9999 -9999 -9999 -9999 -9999 -9999 -9999 -9999 -9999 -9999 -9999 -9999 -9999 -9999 -9999 -9999 -9999 -9999 -9999 -9999 -9999 -9999 -9999 -9999 -9999 -9999 -9999 -9999 -9999 -9999 -9999 -9999 -9999 -9999 -9999 -9999 -9999 -9999 -9999 -9999 -9999 -9999 -9999 -9999 -9999 -9999 9.92000007629395 22.3999996185303 44.3600006103516 5.03999996185303 14.3599996566772 329.160003662109 719.159973144531 665.559997558594 455.119995117188 422.279998779297 259.279998779297 123.400001525879 64.7200012207031 31.5599994659424 52.2000007629395 40.4799995422363 35.8400001525879 31.5200004577637 26.4799995422363 25.2399997711182 21.4400005340576 18.6399993896484 83.9199981689453 23.6000003814697 6.84000015258789 6.11999988555908 7.15999984741211 6.80000019073486 5.3600001335144 4.59999990463257 4.92000007629395 2.75999999046326 2.27999997138977 2.75999999046326 3.88000011444092 2.79999995231628 4.03999996185303 3.11999988555908 2.6800000667572 4.11999988555908 3.64000010490417 2 1.87999999523163 2.07999992370605 2.35999989509583 2.11999988555908 1.39999997615814 2.07999992370605 2.88000011444092 3.75999999046326 3.3199999332428 2.75999999046326 2.11999988555908 2.40000009536743 2.48000001907349 1.8400000333786 1.36000001430511 1.32000005245209 1 0.920000016689301 0.560000002384186 0.159999996423721 0.319999992847443 0.519999980926514 0.639999985694885 0.360000014305115 0.839999973773956 2.03999996185303 0.839999973773956 2.83999991416931 3.03999996185303 6.59999990463257 7.55999994277954 1.91999995708466 2.75999999046326 1.24000000953674 1 5.28000020980835 21.3600006103516 34.7999992370605 54.7999992370605 64.9199981689453 86.4000015258789 134.759994506836 199.240005493164 267.600006103516 238.360000610352 154.399993896484 111.959999084473 100.040000915527 96.6800003051758 102.199996948242 89.6800003051758 76.0800018310547 82.6399993896484 53.560001373291 64.4000015258789 67.6399993896484 192.600006103516 65.0800018310547 25.8799991607666 185.960006713867 72.0800018310547 95.7600021362305 63.0800018310547 -9999 -9999 -9999 -9999 -9999 -9999 -9999 -9999 -9999 -9999 -9999 -9999 -9999 -9999 -9999 -9999 -9999 -9999 -9999 -9999 -9999 -9999 -9999
-9999 -9999 -9999 -9999 -9999 -9999 -9999 -9999 -9999 -9999 -9999 -9999 -9999 -9999 -9999 -9999 -9999 -9999 -9999 -9999 -9999 -9999 -9999 -9999 -9999 -9999 -9999 -9999 -9999 -9999 -9999 -9999 -9999 -9999 -9999 -9999 -9999 -9999 -9999 -9999 -9999 -9999 -9999 -9999 -9999 -9999 -9999 -9999 -9999 -9999 -9999 -9999 -9999 -9999 -9999 -9999 -9999 -9999 -9999 -9999 -9999 -9999 -9999 -9999 17.4400005340576 23.2000007629395 75.5999984741211 16.7199993133545 8.11999988555908 173 796.559997558594 784.159973144531 608.440002441406 578.679992675781 256.399993896484 153.720001220703 47.4000015258789 28.4799995422363 54.1599998474121 82.2399978637695 33 24.3199996948242 19.6800003051758 18.7199993133545 16.5599994659424 15.7200002670288 119.040000915527 25.3199996948242 7.76000022888184 6.59999990463257 5.40000009536743 5.80000019073486 5.55999994277954 5.19999980926514 4.11999988555908 2.44000005722046 2.40000009536743 2.3199999332428 2.88000011444092 2.59999990463257 2.35999989509583 2.48000001907349 4.19999980926514 4 3 1.87999999523163 1.96000003814697 2 1.91999995708466 1.87999999523163 2.11999988555908 2.75999999046326 3.03999996185303 3.75999999046326 2.35999989509583 1.96000003814697 1.55999994277954 1.72000002861023 2.03999996185303 1 0.879999995231628 0.959999978542328 0.680000007152557 0.119999997317791 0.400000005960464 0.439999997615814 0.959999978542328 0.119999997317791 0.0399999991059303 1.03999996185303 0.879999995231628 0.519999980926514 1.75999999046326 0.920000016689301 2.20000004768372 6.40000009536743 8.60000038146973 1.8400000333786 1.39999997615814 0.800000011920929 0.959999978542328 2.11999988555908 6.92000007629395 17.5200004577637 39.7999992370605 54.8800010681152 70.3600006103516 119.040000915527 168.160003662109 212.919998168945 211.199996948242 143.559997558594 104.080001831055 90.1999969482422 108.959999084473 201.759994506836 236.679992675781 240.119995117188 463.640014648438 237.880004882812 40.8800010681152 83.2799987792969 111.919998168945 55.9599990844727 23.8400001525879 20 59.8400001525879 89.9599990844727 26.3600006103516 -9999 -9999 -9999 -9999 -9999 -9999 -9999 -9999 -9999 -9999 -9999 -9999 -9999 -9999 -9999 -9999 -9999 -9999 -9999 -9999 -9999 -9999 -9999
-9999 -9999 -9999 -9999 -9999 -9999 -9999 -9999 -9999 -9999 -9999 -9999 -9999 -9999 -9999 -9999 -9999 -9999 -9999 -9999 -9999 -9999 -9999 -9999 -9999 -9999 -9999 -9999 -9999 -9999 -9999 -9999 -9999 -9999 -9999 -9999 -9999 -9999 -9999 -9999 -9999 -9999 -9999 -9999 -9999 -9999 -9999 -9999 -9999 -9999 -9999 -9999 -9999 127.080001831055 -9999 -9999 -9999 -9999 -9999 -9999 -9999 -9999 20.2399997711182 8.68000030517578 10.5200004577637 30.7999992370605 69.8399963378906 23.3199996948242 3.64000010490417 69.1999969482422 679.440002441406 837.159973144531 728.760009765625 592.039978027344 235.720001220703 162.039993286133 19.3999996185303 18 27.5599994659424 66 51.7599983215332 27.6399993896484 18.8799991607666 13.2799997329712 11.1199998855591 9.47999954223633 29.8400001525879 74.4000015258789 6.40000009536743 18.8799991607666 6.19999980926514 5.59999990463257 5.3600001335144 5.84000015258789 4.71999979019165 3.03999996185303 2.03999996185303 1.48000001907349 1.87999999523163 2.20000004768372 1.67999994754791 2.51999998092651 3.96000003814697 3.75999999046326 2.83999991416931 2.44000005722046 1.24000000953674 2.11999988555908 2.72000002861023 3.20000004768372 3.11999988555908 2.07999992370605 1.8400000333786 1.96000003814697 2.44000005722046 2.07999992370605 1.55999994277954 2.03999996185303 1.55999994277954 1.72000002861023 0.920000016689301 0.680000007152557 0.159999996423721 0.639999985694885 0.759999990463257 0.680000007152557 0 0.439999997615814 0.439999997615814 0.479999989271164 1.27999997138977 0.720000028610229 0.239999994635582 0.319999992847443 1.87999999523163 3.16000008583069 1.91999995708466 1.72000002861023 0.680000007152557 3.51999998092651 13.1999998092651 22.5200004577637 23.1599998474121 6.23999977111816 19.2399997711182 53.2400016784668 62.1599998474121 110.879997253418 145.279998779297 179.039993286133 193.919998168945 141.759994506836 90.4800033569336 109.120002746582 103.559997558594 109.800003051758 87.7200012207031 168.520004272461 270.079986572266 129.520004272461 37.439998626709 31.5200004577637 55.7599983215332 25.7199993133545 13.6400003433228 4.6399998664856 18.3199996948242 63.3600006103516 -9999 -9999 -9999 -9999 -9999 -9999 -9999 -9999 -9999 -9999 -9999 -9999 -9999 -9999 -9999 -9999 -9999 -9999 -9999 -9999 -9999 -9999 -9999 -9999
-9999 -9999 -9999 -9999 -9999 -9999 -9999 -9999 -9999 -9999 -9999 -9999 -9999 -9999 -9999 -9999 -9999 -9999 -9999 -9999 -9999 -9999 -9999 -9999 -9999 -9999 -9999 -9999 -9999 -9999 -9999 -9999 -9999 -9999 -9999 -9999 -9999 -9999 -9999 -9999 -9999 -9999 -9999 -9999 -9999 -9999 -9999 -9999 -9999 -9999 -9999 -9999 -9999 -9999 42.8800010681152 -9999 -9999 -9999 -9999 -9999 -9999 72.9199981689453 79.8399963378906 63.0400009155273 80.3199996948242 83.1600036621094 128.240005493164 29.3999996185303 2.3199999332428 9.19999980926514 315.799987792969 902.799987792969 911.919982910156 688.280029296875 303.799987792969 96.3199996948242 13.0799999237061 18.9200000762939 19.1599998474121 35.1599998474121 76.1600036621094 54.4000015258789 26.3999996185303 13.2399997711182 23.6000003814697 7.19999980926514 6.11999988555908 5.59999990463257 10.4799995422363 76.5599975585938 11.8400001525879 3.51999998092651 3.96000003814697 4.11999988555908 3.40000009536743 3.11999988555908 1.72000002861023 6.51999998092651 1.72000002861023 2.75999999046326 3.03999996185303 2.11999988555908 1.51999998092651 1.96000003814697 3.11999988555908 2.72000002861023 2.48000001907349 2.64000010490417 3.40000009536743 3.48000001907349 2 1.48000001907349 1.91999995708466 1.8400000333786 2.11999988555908 2 2.40000009536743 2.75999999046326 2 0.920000016689301 0.439999997615814 0.720000028610229 1.24000000953674 1.39999997615814 1.32000005245209 0.800000011920929 0.639999985694885 0.119999997317791 0.439999997615814 0.800000011920929 0.720000028610229 0.319999992847443 0.839999973773956 1.24000000953674 1.48000001907349 1.20000004768372 1.8400000333786 1.87999999523163 1.1599999666214 2.72000002861023 7.23999977111816 14.8400001525879 20.2000007629395 4.15999984741211 14.6400003433228 39.8800010681152 47.8800010681152 85.5199966430664 107.519996643066 141.960006713867 138.440002441406 104.800003051758 74.0800018310547 110.199996948242 100.720001220703 85.2799987792969 60.7599983215332 54.0800018310547 46.2799987792969 44.1599998474121 60.2400016784668 41.2400016784668 14.7600002288818 -9999 -9999 -9999 -9999 -9999 -9999 -9999 -9999 -9999 -9999 -9999 -9999 -9999 -9999 -9999 -9999 -9999 -9999 -9999 -9999 -9999 -9999 -9999 -9999 -9999 -9999 -9999 -9999 -9999
-9999 -9999 -9999 -9999 -9999 -9999 -9999 -9999 -9999 -9999 -9999 -9999 -9999 -9999 -9999 -9999 -9999 -9999 -9999 -9999 -9999 -9999 -9999 -9999 -9999 -9999 -9999 -9999 -9999 -9999 -9999 -9999 -9999 -9999 -9999 -9999 -9999 -9999 -9999 -9999 -9999 -9999 -9999 -9999 -9999 -9999 -9999 -9999 -9999 -9999 -9999 -9999 -9999 -9999 -9999 -9999 -9999 -9999 -9999 -9999 38.7599983215332 85.8000030517578 75.0800018310547 34.0400009155273 71.9199981689453 125.559997558594 83.7200012207031 1.67999994754791 2.51999998092651 -9999 71.1600036621094 478.119995117188 963.880004882812 915.200012207031 514.840026855469 82.0400009155273 3.79999995231628 3.75999999046326 28.0400009155273 51.0400009155273 76.3600006103516 79.1999969482422 28.7600002288818 13.3199996948242 28.5200004577637 5.55999994277954 4 4.92000007629395 4.80000019073486 28.1200008392334 6.96000003814697 31.2800006866455 52.9599990844727 4 2.96000003814697 5.44000005722046 1.8400000333786 1.12000000476837 1.51999998092651 1.32000005245209 2.72000002861023 1.8400000333786 1.48000001907349 1.91999995708466 2.88000011444092 3.44000005722046 3.27999997138977 2.48000001907349 2.24000000953674 1.96000003814697 1.87999999523163 1.67999994754791 1.60000002384186 2.16000008583069 3.20000004768372 3.75999999046326 3.07999992370605 2.40000009536743 1.8400000333786 1.79999995231628 1 0.959999978542328 1.24000000953674 0.759999990463257 1.67999994754791 0.800000011920929 0.800000011920929 0.959999978542328 0.0399999991059303 0.200000002980232 1 1.79999995231628 1.44000005722046 1.24000000953674 1.39999997615814 1.51999998092651 2 2.44000005722046 1.55999994277954 1.1599999666214 2.44000005722046 2.83999991416931 6.07999992370605 3.64000010490417 6.88000011444092 17.6399993896484 45.1599998474121 51.7599983215332 69.120002746582 113.23999786377 110.080001831055 102.400001525879 71.7600021362305 89.4000015258789 71.7600021362305 60.9199981689453 52.0800018310547 31.7199993133545 30.2000007629395 25.2000007629395 44.6800003051758 14.2399997711182 -9999 -9999 -9999 -9999 -9999 -9999 -9999 -9999 -9999 -9999 -9999 -9999 -9999 -9999 -9999 -9999 -9999 -9999 -9999 -9999 -9999 -9999 -9999 -9999 -9999 -9999 -9999 -9999 -9999 -9999
-9999 -9999 -9999 -9999 -9999 -9999 -9999 -9999 -9999 -9999 -9999 -9999 -9999 -9999 -9999 -9999 -9999 -9999 -9999 -9999 -9999 -9999 -9999 -9999 -9999 -9999 -9999 -9999 -9999 -9999 -9999 -9999 -9999 -9999 -9999 -9999 -9999 -9999 -9999 -9999 -9999 -9999 -9999 -9999 -9999 -9999 -9999 -9999 -9999 -9999 -9999 -9999 -9999 -9999 -9999 -9999 -9999 -9999 -9999 -9999 5.44000005722046 38.9199981689453 63.8400001525879 6.88000011444092 26.7600002288818 59 17.6000003814697 1.60000002384186 1.96000003814697 -9999 4.40000009536743 134.199996948242 394.839996337891 398.119995117188 309.720001220703 22.6800003051758 2.79999995231628 3.07999992370605 12.6800003051758 48.1599998474121 88.4000015258789 83.9199981689453 22.7999992370605 9.5600004196167 7.59999990463257 5.32000017166138 3.51999998092651 3.83999991416931 3.96000003814697 4.88000011444092 23.7600002288818 68.3600006103516 128.520004272461 10.0799999237061 5.6399998664856 61.2400016784668 18.1200008392334 2.40000009536743 1.08000004291534 1.32000005245209 1.48000001907349 2.03999996185303 1.87999999523163 2.6800000667572 4.03999996185303 3.27999997138977 2.79999995231628 1.96000003814697 2.11999988555908 1.79999995231628 2.03999996185303 1.75999999046326 2.51999998092651 3.3199999332428 3.88000011444092 3.16000008583069 2.3199999332428 2 2.35999989509583 3.16000008583069 1.96000003814697 1.48000001907349 1.32000005245209 1 0.839999973773956 1 0.560000002384186 0.159999996423721 0.600000023841858 1.27999997138977 1.1599999666214 1 1.1599999666214 1.32000005245209 1.36000001430511 1.60000002384186 2.20000004768372 1.96000003814697 1.24000000953674 2.03999996185303 2.07999992370605 4.76000022888184 5.71999979019165 4.07999992370605 2.96000003814697 14.8800001144409 80.5599975585938 32.6800003051758 44.7200012207031 85.5599975585938 88.3199996948242 67.5999984741211 37.4000015258789 57.0800018310547 43.4000015258789 39.4000015258789 40.7200012207031 23.2800006866455 10.5200004577637 4.88000011444092 -9999 -9999 -9999 -9999 -9999 -9999 -9999 -9999 -9999 -9999 -9999 -9999 -9999 -9999 -9999 -9999 -9999 -9999 -9999 -9999 -9999 -9999 -9999 -9999 -9999 -9999 -9999 -9999 -9999 -9999 -9999 -9999
-9999 -9999 -9999 -9999 -9999 -9999 -9999 -9999 -9999 -9999 -9999 -9999 -9999 -9999 -9999 -9999 -9999 -9999 -9999 -9999 -9999 -9999 -9999 -9999 -9999 -9999 -9999 -9999 -9999 -9999 -9999 -9999 -9999 -9999 -9999 -9999 -9999 -9999 -9999 -9999 -9999 -9999 -9999 -9999 -9999 -9999 -9999 -9999 -9999 -9999 -9999 -9999 -9999 -9999 -9999 21.3999996185303 -9999 -9999 -9999 -9999 -9999 16.4799995422363 17.5599994659424 46.5999984741211 23.3199996948242 2.27999997138977 11.1199998855591 5.76000022888184 -9999 -9999 -9999 -9999 12.8800001144409 11.8000001907349 10 3.64000010490417 2.48000001907349 -9999 3.88000011444092 23.2399997711182 80.6399993896484 24.8400001525879 10.5600004196167 5.55999994277954 6.92000007629395 4 3.3199999332428 2.96000003814697 3.51999998092651 3.11999988555908 5.44000005722046 67.3199996948242 23.9200000762939 3.35999989509583 18.9599990844727 15.4399995803833 6.03999996185303 2.16000008583069 1.1599999666214 1.08000004291534 1.08000004291534 2.51999998092651 3.27999997138977 3.44000005722046 3.40000009536743 3.59999990463257 3.35999989509583 3.55999994277954 1.87999999523163 1.36000001430511 2.88000011444092 3.24000000953674 3.35999989509583 3.59999990463257 3.59999990463257 2.79999995231628 2.83999991416931 3 2.75999999046326 2.40000009536743 2.24000000953674 2.16000008583069 1.63999998569489 1.39999997615814 1.20000004768372 0.439999997615814 0.479999989271164 0.759999990463257 1.20000004768372 1.20000004768372 0.959999978542328 1.08000004291534 1.12000000476837 1.36000001430511 1.55999994277954 1.12000000476837 1.72000002861023 1.24000000953674 1.55999994277954 5.15999984741211 6.3600001335144 5.59999990463257 4.76000022888184 3.35999989509583 2.88000011444092 13.3999996185303 72.2399978637695 145.440002441406 23.7199993133545 49.9599990844727 53.6399993896484 38.4000015258789 23.0400009155273 41.8400001525879 31.7199993133545 39.9599990844727 30.2000007629395 6.40000009536743 -9999 -9999 -9999 -9999 -9999 -9999 -9999 -9999 -9999 -9999 -9999 -9999 -9999 -9999 -9999 -9999 -9999 -9999 -9999 -9999 -9999 -9999 -9999 -9999 -9999 -9999 -9999 -9999 -9999 -9999 -9999 -9999 -9999 -9999
-9999 -9999 -9999 -9999 -9999 -9999 -9999 -9999 -9999 -9999 -9999 -9999 -9999 -9999 -9999 -9999 -9999 -9999 -9999 -9999 -9999 -9999 -9999 -9999 -9999 -9999 -9999 -9999 -9999 -9999 -9999 -9999 -9999 -9999 -9999 -9999 -9999 -9999 -9999 -9999 -9999 -9999 -9999 -9999 -9999 -9999 -9999 -9999 -9999 -9999 -9999 -9999 -9999 -9999 -9999 -9999 -9999 -9999 -9999 -9999 -9999 -9999 -9999 41.1199989318848 24.1200008392334 17.1200008392334 11.1999998092651 -9999 -9999 -9999 -9999 -9999 -9999 -9999 -9999 -9999 -9999 -9999 -9999 52.4799995422363 11.7600002288818 8.27999973297119 6.51999998092651 4.71999979019165 4.11999988555908 3.44000005722046 3.07999992370605 2.88000011444092 2.72000002861023 2.51999998092651 4.76000022888184 2.88000011444092 3.16000008583069 3.83999991416931 4.48000001907349 152.039993286133 63.2000007629395 2.44000005722046 1.08000004291534 1.48000001907349 1.96000003814697 2.48000001907349 2.16000008583069 3.27999997138977 2.72000002861023 2.59999990463257 2.6800000667572 2.20000004768372 3 4.40000009536743 4.11999988555908 3.83999991416931 3.24000000953674 2.96000003814697 3.16000008583069 3.75999999046326 3.35999989509583 2.79999995231628 3.07999992370605 3.35999989509583 3.03999996185303 2.24000000953674 1.87999999523163 1.32000005245209 1 1.03999996185303 1.51999998092651 0.920000016689301 0.759999990463257 1.48000001907349 1.36000001430511 1.36000001430511 1.67999994754791 1.24000000953674 0.879999995231628 1.03999996185303 1.51999998092651 0.959999978542328 1.72000002861023 7.55999994277954 6.80000019073486 5.28000020980835 2.64000010490417 1.51999998092651 2.07999992370605 2.55999994277954 36.6800003051758 140.440002441406 12.3599996566772 22.3199996948242 23.3999996185303 20.2800006866455 11.4399995803833 13.6400003433228 38.0800018310547 48.4000015258789 24 -9999 -9999 -9999 -9999 -9999 -9999 -9999 -9999 -9999 -9999 -9999 -9999 -9999 -9999 -9999 -9999 -9999 -9999 -9999 -9999 -9999 -9999 -9999 -9999 -9999 -9999 -9999 -9999 -9999 -9999 -9999 -9999 -9999 9.11999988555908 -9999
-9999 -9999 -9999 -9999 -9999 -9999 -9999 -9999 -9999 -9999 -9999 -9999 -9999 -9999 -9999 -9999 -9999 -9999 -9999 -9999 -9999 -9999 -9999 -9999 -9999 -9999 -9999 -9999 -9999 -9999 -9999 -9999 -9999 -9999 -9999 -9999 -9999 -9999 -9999 -9999 -9999 -9999 -9999 -9999 -9999 -9999 -9999 -9999 -9999 -9999 -9999 -9999 -9999 -9999 -9999 -9999 -9999 -9999 -9999 -9999 -9999 -9999 -9999 -9999 -9999 -9999 33.2000007629395 -9999 -9999 -9999 -9999 -9999 -9999 -9999 -9999 -9999 -9999 -9999 -9999 23.0400009155273 -9999 2.96000003814697 3.6800000667572 3.59999990463257 3.20000004768372 3.11999988555908 2.64000010490417 2.51999998092651 2.55999994277954 2.48000001907349 2.6800000667572 2.75999999046326 2.40000009536743 53.5200004577637 191.440002441406 182.479995727539 58.0800018310547 1.48000001907349 2.11999988555908 2.24000000953674 2.03999996185303 1.39999997615814 1.27999997138977 2.44000005722046 1.72000002861023 1.75999999046326 1.91999995708466 3.16000008583069 4.40000009536743 4.19999980926514 5.6399998664856 4 3.48000001907349 3.27999997138977 3.24000000953674 2.96000003814697 3.03999996185303 3.27999997138977 3.35999989509583 3.11999988555908 2.92000007629395 2.20000004768372 1.79999995231628 1.60000002384186 1.67999994754791 1.63999998569489 0.879999995231628 0.759999990463257 1.72000002861023 1.1599999666214 1.24000000953674 1.27999997138977 1.03999996185303 0.800000011920929 1.72000002861023 1 1.1599999666214 0.600000023841858 1.39999997615814 4 3 4.48000001907349 2.55999994277954 0.280000001192093 -9999 5.15999984741211 3.3199999332428 1.39999997615814 3.64000010490417 11.039999961853 14.6800003051758 10.4799995422363 5.67999982833862 5.3600001335144 15.0799999237061 -9999 -9999 -9999 -9999 -9999 -9999 -9999 -9999 -9999 -9999 -9999 -9999 -9999 -9999 -9999 -9999 -9999 -9999 -9999 -9999 -9999 -9999 -9999 -9999 -9999 -9999 -9999 -9999 -9999 -9999 -9999 -9999 -9999 -9999 -9999 -9999 -9999
-9999 -9999 -9999 -9999 -9999 -9999 -9999 -9999 -9999 -9999 -9999 -9999 -9999 -9999 -9999 -9999 -9999 -9999 -9999 -9999 -9999 -9999 -9999 -9999 -9999 -9999 -9999 -9999 -9999 -9999 -9999 -9999 -9999 -9999 -9999 -9999 -9999 -9999 -9999 -9999 -9999 -9999 -9999 -9999 -9999 -9999 -9999 -9999 -9999 -9999 -9999 -9999 -9999 -9999 -9999 -9999 -9999 -9999 -9999 -9999 -9999 -9999 -9999 -9999 -9999 -9999 -9999 -9999 -9999 -9999 -9999 -9999 -9999 -9999 -9999 -9999 -9999 -9999 -9999 -9999 -9999 -9999 2.40000009536743 3.48000001907349 2.59999990463257 2.6800000667572 2.16000008583069 2.40000009536743 2.20000004768372 2.6800000667572 2.96000003814697 2.72000002861023 2.20000004768372 4.6399998664856 12.3599996566772 14.3199996948242 7.76000022888184 2.79999995231628 2.44000005722046 1.96000003814697 1.24000000953674 1.39999997615814 1.60000002384186 1.32000005245209 1.60000002384186 2.79999995231628 1.8400000333786 3.16000008583069 3.16000008583069 3.55999994277954 3 5.3600001335144 5.48000001907349 3.51999998092651 3.03999996185303 4.07999992370605 3.79999995231628 3.79999995231628 2.88000011444092 2.48000001907349 2.3199999332428 2.59999990463257 2.44000005722046 2.03999996185303 1.44000005722046 1 1.03999996185303 1.12000000476837 2.44000005722046 1.48000001907349 1.27999997138977 1.48000001907349 1.24000000953674 1.44000005722046 1.24000000953674 1.51999998092651 1.27999997138977 1.08000004291534 0.200000002980232 0.839999973773956 2.27999997138977 2.11999988555908 0.680000007152557 -9999 -9999 -9999 5.59999990463257 1.79999995231628 1.87999999523163 47.7999992370605 15.1999998092651 -9999 -9999 -9999 -9999 -9999 -9999 -9999 -9999 -9999 -9999 -9999 -9999 -9999 -9999 -9999 -9999 -9999 -9999 -9999 -9999 -9999 -9999 -9999 -9999 -9999 -9999 -9999 -9999 -9999 -9999 -9999 -9999 -9999 -9999 -9999 -9999 -9999 -9999 -9999 -9999 -9999
