NCOLS 719
NROWS 32
XLLCORNER 102.81655354
YLLCORNER 12.61663762
CELLSIZE 0.00833333000000001 
NODATA_value -9999 
92 83 80 78 75 73 74 82 84 86 74 70 75 81 96 66 63 58 51 49 50 52 51 49 46 44 43 43 44 45 41 35 30 29 29 28 27 28 24 27 28 27 26 25 25 25 25 24 23 23 23 20 31 28 19 19 18 18 17 17 16 15 15 14 14 13 13 13 12 12 11 11 11 11 11 11 10 10 10 10 10 10 10 9 9 9 10 10 9 10 10 9 10 9 8 7 8 8 9 10 9 9 10 9 9 10 10 9 8 9 8 7 8 8 8 8 8 8 8 7 7 7 7 -9999 7 7 7 4 -9999 -9999 -9999 -9999 -9999 -9999 -9999 -9999 -9999 -9999 -9999 -9999 -9999 -9999 -9999 -9999 -9999 -9999 -9999 -9999 -9999 -9999 -9999 -9999 -9999 -9999 -9999 -9999 -9999 -9999 -9999 -9999 -9999 -9999 -9999 10 9 9 8 8 6 8 9 7 8 9 10 8 9 9 8 9 9 9 9 9 10 10 11 11 11 10 11 11 11 11 10 11 11 10 10 10 10 10 10 10 11 11 11 11 12 12 12 13 14 13 13 14 14 14 15 15 15 16 16 15 16 17 18 17 17 18 18 19 20 19 18 18 19 19 17 17 17 17 18 18 19 19 18 21 20 20 20 20 19 19 19 19 20 20 21 21 22 21 22 23 24 24 26 29 23 21 19 18 17 16 17 18 18 18 18 18 16 22 32 34 34 42 47 49 58 44 40 47 45 50 51 54 53 58 65 69 78 76 77 84 91 98 107 112 105 90 94 97 100 96 103 92 96 92 100 109 102 94 88 83 74 57 71 67 51 52 63 78 80 80 86 86 85 90 99 146 232 180 147 121 125 117 108 98 94 89 93 89 87 88 75 67 60 65 63 58 57 54 53 54 55 52 41 46 52 49 45 40 39 37 31 21 27 39 32 32 29 26 39 45 47 49 49 47 48 48 51 52 53 57 62 76 100 98 76 70 74 72 72 73 72 71 72 76 78 76 78 81 84 97 97 88 84 87 90 93 106 128 134 131 112 106 104 104 106 115 107 104 104 102 97 100 100 110 103 99 93 102 110 126 129 125 126 119 122 119 119 122 116 120 126 132 134 129 131 147 122 118 118 126 127 127 134 137 139 146 150 151 156 153 157 165 164 171 168 160 170 186 198 202 195 193 195 201 201 192 186 187 185 187 188 192 204 204 195 208 199 193 173 173 174 182 198 220 223 215 207 202 206 212 219 241 263 268 260 248 233 237 250 243 237 243 248 260 280 226 206 206 200 199 206 210 207 199 203 202 206 214 221 224 240 267 276 275 294 301 279 263 255 246 253 232 216 199 196 218 229 214 217 230 229 217 209 210 220 223 222 215 210 202 203 216 214 204 203 219 221 214 212 205 197 192 189 191 196 200 195 192 194 195 187 181 183 189 191 190 195 202 203 202 204 205 212 216 225 232 230 230 238 249 287 312 312 321 340 370 397 417 425 411 420 428 441 455 464 467 478 494 515 544 559 576 587 597 608 619 625 647 668 649 661 686 689 669 678 662 646 626 625 619 587 577 619 601 595 579 590 587 565 586 587 578 570 565 557 544 534 511 488 487 499 499 487 462 464 456 447 462 472 477 460 434 417 392 367 332 328 313 309 316 303 285 290 297 306 319 317 316 333 401 488 504 435 406 453 340 306 309 328 468 600 751 904 743 859
86 87 80 76 73 73 69 67 67 65 64 62 63 62 58 58 61 73 66 49 56 61 55 57 60 43 39 41 43 42 37 32 31 30 29 29 29 27 25 25 27 27 26 26 25 24 24 24 23 34 21 21 52 109 21 19 18 18 17 17 16 16 15 14 13 15 13 13 12 12 12 12 11 11 11 11 11 10 10 10 10 10 10 10 9 11 10 10 10 10 10 10 9 9 9 7 8 9 10 10 10 10 10 10 10 10 10 9 9 8 8 8 8 8 7 7 8 7 7 6 7 7 6 6 7 7 8 5 4 4 4 -9999 -9999 -9999 -9999 -9999 -9999 -9999 -9999 -9999 -9999 -9999 -9999 -9999 -9999 -9999 -9999 -9999 -9999 -9999 -9999 -9999 -9999 -9999 -9999 -9999 -9999 -9999 -9999 -9999 -9999 -9999 -9999 8 10 8 8 8 6 7 9 10 9 9 9 9 8 7 8 10 9 9 9 10 9 10 10 10 11 11 11 7 9 10 11 10 11 10 10 9 9 9 10 10 10 10 11 11 11 11 12 12 13 13 15 13 14 14 14 14 15 16 15 15 18 19 18 16 16 16 17 18 20 20 18 17 18 17 17 17 17 18 18 18 19 19 18 22 22 22 22 21 21 20 19 19 19 19 20 20 21 21 22 22 23 22 27 24 19 18 19 16 16 16 17 18 19 18 18 18 19 28 39 40 42 44 49 50 57 41 50 53 52 63 61 60 69 72 71 71 69 81 83 84 89 99 98 99 102 93 89 105 104 91 98 79 80 84 98 107 100 90 82 79 76 64 67 59 49 69 69 68 72 75 79 83 86 91 92 116 124 126 115 113 132 123 130 116 96 86 90 84 77 81 78 69 68 69 67 65 63 59 54 49 44 44 46 44 50 46 44 37 34 34 23 24 38 38 29 34 27 27 37 43 53 54 50 46 49 49 49 49 52 55 60 72 92 84 66 66 68 68 67 67 66 67 73 73 75 72 76 79 85 97 108 90 90 91 96 98 106 119 127 115 114 116 111 111 112 114 109 108 116 107 100 103 105 112 110 101 98 106 119 113 127 130 125 119 119 122 122 124 116 120 132 137 137 131 141 147 124 124 121 126 129 135 134 134 150 156 157 159 159 166 171 178 178 179 185 180 192 197 201 209 209 198 196 201 196 194 192 198 193 193 198 198 204 201 190 189 205 184 180 179 175 175 189 200 204 209 208 205 214 228 254 269 268 267 253 237 236 236 253 249 248 266 288 272 215 204 210 210 205 201 203 220 212 203 209 207 206 214 222 229 242 272 284 281 294 307 294 291 273 269 265 235 219 212 206 224 237 223 214 217 222 216 218 224 225 235 225 218 216 206 204 218 221 211 208 217 212 209 199 195 193 190 190 193 198 201 199 198 192 186 183 191 189 187 188 187 189 192 193 193 196 198 202 208 212 215 216 220 247 276 292 307 322 343 364 381 390 405 417 404 408 417 429 443 439 462 492 509 523 544 550 562 575 572 573 576 606 622 633 632 657 686 697 669 650 645 642 639 624 611 613 571 587 592 583 564 568 577 551 557 568 569 571 566 557 547 537 526 518 487 477 484 481 454 459 453 445 464 459 464 460 439 408 392 379 345 339 323 307 298 296 290 302 303 307 322 337 334 356 371 421 504 573 612 680 602 493 338 325 426 666 848 962 944 957
79 75 76 78 77 75 68 65 60 57 55 55 54 61 51 66 79 76 68 45 48 51 50 111 124 40 37 40 45 42 35 32 29 31 29 28 29 28 28 29 27 26 26 26 26 25 24 24 23 23 26 38 27 121 32 19 19 18 18 17 16 15 15 14 14 13 13 12 12 12 12 12 12 11 11 11 11 11 11 11 10 10 10 10 10 10 10 9 10 10 10 10 9 10 11 10 10 10 11 10 11 11 11 11 11 9 7 8 9 9 9 8 7 7 7 8 8 7 7 6 6 7 7 6 7 7 8 7 7 7 5 -9999 -9999 -9999 -9999 -9999 -9999 -9999 -9999 -9999 -9999 -9999 -9999 -9999 -9999 -9999 -9999 -9999 -9999 -9999 -9999 -9999 -9999 -9999 -9999 -9999 -9999 -9999 -9999 -9999 -9999 -9999 -9999 -9999 10 10 9 10 8 8 9 10 9 9 10 9 9 7 8 9 9 9 9 9 9 9 9 10 10 10 10 9 9 10 11 10 10 11 10 10 9 9 9 10 10 10 10 11 11 11 11 11 12 12 13 12 13 14 15 15 14 14 15 15 17 18 17 16 16 16 17 18 19 19 17 16 17 17 17 17 18 18 19 19 18 17 24 32 31 29 26 25 22 21 19 19 19 19 19 20 20 20 21 22 22 21 27 19 16 16 18 16 16 16 18 17 17 17 18 24 26 37 38 40 42 45 46 45 37 36 44 54 62 71 72 68 75 78 81 83 79 73 80 83 91 96 96 98 91 87 92 105 102 81 75 85 96 98 97 105 105 91 89 84 76 57 61 52 60 76 86 91 95 95 97 101 108 112 112 99 105 107 108 117 125 124 111 112 98 88 79 79 76 73 77 72 71 69 67 65 64 59 55 53 51 46 41 38 41 43 42 42 35 29 21 33 38 34 31 37 25 27 35 44 52 55 53 50 50 52 52 50 52 52 56 72 64 63 61 61 65 65 63 64 66 70 73 70 72 74 76 78 81 84 94 97 94 100 101 109 113 116 128 126 120 116 116 119 121 117 123 117 118 108 106 112 111 113 112 110 104 102 111 116 123 133 124 118 123 130 130 120 117 123 139 138 139 144 152 138 126 122 123 127 129 134 132 134 145 148 151 161 168 171 176 182 181 188 200 192 190 198 208 216 224 205 199 207 198 191 192 204 201 201 209 213 205 196 194 191 185 195 207 194 186 175 181 185 189 197 211 213 236 248 248 254 265 271 258 250 276 287 284 283 281 258 236 212 213 211 210 218 213 209 205 213 212 206 213 214 208 215 225 232 249 284 295 296 306 309 301 279 262 245 244 234 232 210 217 219 236 231 221 220 226 229 226 231 239 238 226 222 219 208 204 213 227 214 213 213 206 201 201 199 201 207 196 193 195 201 210 203 186 190 185 187 188 190 191 188 186 188 190 192 198 200 204 207 207 212 220 231 240 255 284 303 338 379 379 376 386 394 397 394 392 419 417 421 426 456 489 513 524 523 535 539 548 528 553 580 581 613 661 680 676 685 689 667 662 656 653 644 636 627 617 600 567 564 568 569 555 568 559 536 555 554 546 563 557 548 538 537 526 494 469 472 470 455 443 438 449 458 451 443 442 422 418 391 374 356 357 346 322 312 307 294 296 311 350 335 336 343 366 388 404 438 494 510 620 855 803 542 367 404 639 825 923 959 969
78 75 72 72 73 73 72 67 61 58 53 50 49 47 45 48 50 50 49 44 42 41 44 49 40 37 36 34 36 39 35 32 30 33 29 29 32 31 30 29 28 28 28 27 25 25 24 23 23 23 21 22 21 20 20 19 19 19 18 16 16 15 15 14 14 14 13 13 13 13 12 12 12 12 12 12 11 11 10 10 10 10 10 10 10 9 11 10 10 9 10 12 9 9 10 9 9 9 10 11 11 10 11 11 10 7 7 9 10 9 9 9 8 7 7 6 7 7 7 7 7 7 8 7 8 8 7 7 7 7 5 4 -9999 -9999 -9999 -9999 -9999 -9999 -9999 -9999 -9999 -9999 -9999 -9999 -9999 -9999 -9999 -9999 -9999 -9999 -9999 -9999 -9999 -9999 -9999 -9999 -9999 -9999 -9999 -9999 -9999 -9999 -9999 -9999 -9999 11 10 10 9 7 7 10 10 10 10 9 8 7 8 9 8 9 9 9 9 9 9 10 10 11 11 11 11 10 10 10 10 10 10 10 10 9 9 10 9 9 10 10 10 10 11 11 11 13 12 13 13 14 14 14 14 14 14 15 15 15 16 16 15 15 16 17 17 17 17 16 17 16 16 16 17 17 17 17 18 17 27 33 32 30 30 29 25 22 20 19 19 19 19 19 19 20 21 21 23 19 18 15 15 16 16 16 17 16 16 17 16 17 21 27 33 37 37 40 42 44 39 34 46 51 54 58 63 70 74 75 78 81 76 80 83 85 86 87 88 95 94 94 88 83 94 85 81 72 84 95 98 101 94 101 104 91 84 79 71 58 56 49 69 78 83 88 90 97 104 106 112 120 108 100 101 100 106 127 142 128 124 113 116 103 91 84 72 71 70 72 70 66 63 63 59 57 59 56 52 53 52 42 40 38 35 38 37 23 20 34 39 34 30 34 26 30 38 44 45 51 57 53 53 55 54 53 54 53 55 57 55 56 57 60 60 60 62 66 67 70 70 67 72 73 76 79 83 84 86 92 105 104 104 108 107 120 138 147 135 130 128 132 130 126 133 126 122 113 117 118 120 122 119 116 109 111 114 115 127 133 130 125 129 135 128 119 119 125 143 150 149 153 152 133 125 122 126 128 128 133 137 134 139 147 159 164 171 173 176 184 188 187 192 193 193 198 204 216 222 209 210 214 210 199 198 202 204 203 211 216 210 201 198 191 186 185 183 221 202 182 178 183 192 207 237 249 229 238 239 256 274 291 285 272 307 328 298 284 246 229 224 218 225 212 216 228 220 223 208 211 216 211 218 217 210 213 220 232 255 306 310 316 336 303 284 267 264 249 228 217 214 213 223 230 236 236 225 222 226 234 247 243 259 239 229 224 221 211 209 218 223 216 219 217 221 260 303 303 299 253 197 194 197 207 213 192 194 190 189 193 192 192 193 190 187 189 191 198 205 210 215 220 214 215 229 230 235 246 278 315 364 370 361 370 381 386 385 384 396 409 407 415 436 461 484 493 505 535 543 526 513 525 561 541 545 588 650 667 686 665 669 682 685 649 640 632 628 621 613 602 582 552 542 556 550 558 545 533 543 548 530 558 561 555 529 517 526 502 476 465 457 447 442 439 441 450 444 433 434 417 398 386 369 368 374 343 318 312 327 312 336 324 331 323 327 334 337 367 400 410 478 623 582 773 920 832 573 434 576 644 697 829 914
79 76 76 70 67 63 62 66 68 66 55 50 49 48 47 46 41 43 45 43 40 40 41 38 39 38 34 34 35 35 33 34 30 34 32 32 32 31 30 30 29 28 27 27 26 25 25 24 23 22 21 20 20 20 20 20 19 18 17 17 15 15 15 14 14 14 13 14 13 14 14 14 14 12 11 11 11 12 11 10 11 11 10 10 10 12 11 11 10 10 12 11 9 8 9 9 9 9 11 10 11 11 12 10 11 10 8 8 9 9 10 9 9 8 7 7 8 8 7 7 7 8 9 8 8 7 7 7 8 7 7 5 5 -9999 -9999 -9999 -9999 -9999 -9999 -9999 -9999 -9999 -9999 -9999 -9999 -9999 -9999 -9999 -9999 -9999 -9999 -9999 -9999 -9999 -9999 -9999 -9999 -9999 -9999 -9999 -9999 -9999 -9999 -9999 -9999 8 10 9 10 6 8 9 10 10 10 9 5 5 5 7 5 9 8 8 9 8 9 9 10 10 10 10 10 10 10 10 10 10 10 10 10 9 9 9 9 9 9 10 10 10 10 11 11 11 12 12 13 14 13 13 13 14 14 14 15 15 15 15 14 15 16 16 16 16 17 16 16 16 15 17 15 16 17 16 13 17 20 25 26 25 27 28 28 24 21 20 19 18 21 19 19 20 21 22 20 15 15 16 16 15 15 16 16 15 15 20 20 18 23 29 36 34 37 37 34 33 32 44 48 51 58 59 64 64 67 76 78 81 79 82 81 81 87 85 87 92 90 89 91 78 75 72 85 94 89 105 105 99 99 98 100 91 82 74 75 57 51 58 75 76 84 88 93 115 128 124 132 138 127 99 97 111 126 130 135 130 124 110 109 108 92 83 71 69 67 72 69 66 67 63 58 56 54 52 51 48 48 45 41 41 37 35 32 21 19 33 39 34 30 25 28 28 36 38 41 48 57 57 56 57 56 56 58 63 59 53 53 55 56 56 59 61 64 63 64 65 66 67 71 74 77 79 83 86 90 97 109 101 101 104 109 135 131 138 158 141 131 142 158 149 132 138 123 125 117 113 124 124 129 118 115 128 135 117 125 137 132 130 132 134 126 120 121 124 128 137 146 148 139 133 132 139 129 127 131 131 139 142 138 145 155 169 174 176 177 184 193 197 200 201 196 202 213 218 217 221 230 236 223 217 240 238 257 217 213 212 211 211 207 197 193 191 185 200 232 209 177 192 223 249 234 241 237 256 268 282 282 277 270 268 290 322 308 283 288 262 230 229 236 221 225 233 233 223 213 220 220 215 219 222 216 215 226 238 282 324 326 317 303 290 282 279 278 252 232 221 223 217 225 234 244 234 228 226 232 236 257 269 254 256 233 230 227 215 211 216 224 223 238 282 342 381 350 272 220 201 197 195 203 214 207 200 194 192 191 193 197 197 196 195 190 192 198 203 207 214 214 217 224 231 235 243 254 282 297 318 343 354 358 367 374 375 381 379 387 397 396 397 425 452 457 485 504 515 536 522 504 512 520 517 544 583 617 630 669 666 669 689 683 661 640 625 614 612 604 596 586 577 538 543 542 551 528 522 546 533 517 544 556 557 544 522 509 511 495 483 468 463 463 447 434 444 441 428 418 406 394 398 393 376 375 346 330 322 335 343 345 339 356 354 339 344 346 352 382 396 417 557 672 701 817 894 721 482 457 515 540 639 750
88 82 89 85 73 64 60 61 60 59 53 51 51 48 48 49 49 45 43 44 42 40 38 36 40 36 37 36 38 38 37 36 35 33 33 32 32 30 31 30 29 28 28 27 27 26 25 24 23 23 22 22 21 20 20 19 18 18 17 16 15 15 15 15 14 14 15 14 14 15 13 12 12 12 12 11 11 13 12 11 11 11 10 10 10 10 10 12 10 10 10 11 10 9 9 9 9 9 10 11 11 10 10 8 9 9 7 9 9 10 9 9 8 8 8 8 8 8 7 7 8 8 8 8 8 8 8 8 7 7 7 8 7 6 -9999 4 6 -9999 -9999 -9999 -9999 -9999 -9999 -9999 -9999 -9999 -9999 -9999 -9999 -9999 -9999 -9999 -9999 -9999 -9999 -9999 -9999 -9999 -9999 -9999 -9999 -9999 -9999 -9999 -9999 -9999 10 8 8 6 8 9 10 10 9 7 5 5 5 5 5 7 8 8 8 8 9 8 9 10 9 9 9 9 9 10 9 10 10 10 10 9 9 9 9 9 9 9 9 10 10 10 11 11 11 12 12 14 14 13 13 13 14 14 14 14 14 14 14 15 15 15 16 16 15 15 15 15 15 16 17 15 17 17 13 17 17 19 19 20 21 21 21 21 21 21 20 20 17 18 19 21 20 16 17 14 15 15 15 15 15 16 16 15 17 20 21 24 21 26 32 37 35 29 37 40 46 43 44 47 55 57 59 60 71 75 72 75 81 77 77 85 85 85 83 86 85 89 87 79 72 84 89 97 99 101 105 98 94 97 92 90 88 81 73 62 52 61 77 67 75 86 107 121 127 140 144 138 120 94 106 120 109 121 122 113 105 97 95 96 91 90 75 69 67 74 76 71 66 60 56 57 61 57 56 53 53 46 43 42 39 36 30 22 19 31 37 31 28 24 27 32 33 36 41 45 55 60 58 58 59 58 68 75 58 55 57 61 58 58 59 58 59 59 64 66 67 69 73 76 78 81 86 88 93 106 108 100 97 98 105 135 118 104 127 119 116 109 117 128 141 134 121 117 113 109 113 122 141 167 130 135 142 134 134 137 136 138 133 134 128 127 124 128 129 131 137 142 135 136 177 160 141 133 132 131 139 148 148 149 152 164 174 184 181 184 192 201 206 206 200 203 208 212 223 241 250 225 219 230 259 267 249 217 217 213 224 225 214 208 206 193 189 194 244 231 199 207 227 244 256 250 250 268 266 258 267 279 288 291 286 326 313 312 312 310 244 257 251 223 228 246 234 219 216 223 221 222 221 228 224 221 222 246 291 333 336 328 324 316 295 286 263 241 231 227 233 223 228 237 246 238 233 236 238 238 254 268 272 253 236 237 228 215 214 218 227 252 336 352 320 261 230 209 198 200 198 195 205 210 205 199 194 194 195 198 203 206 202 197 190 196 200 201 210 211 212 214 217 225 235 255 277 288 303 330 340 344 358 369 372 373 377 376 385 386 388 405 414 423 444 459 479 511 519 493 500 507 516 532 538 581 590 622 636 653 681 657 656 650 641 652 634 634 621 614 596 567 545 525 524 539 517 513 537 530 511 529 536 532 536 531 506 507 492 478 459 455 446 447 436 438 439 438 424 407 414 428 415 395 376 354 332 360 353 387 387 372 354 358 384 382 379 358 352 385 389 412 542 533 577 718 604 510 456 484 530 520 530
135 101 95 89 78 71 60 57 56 55 53 47 48 52 95 74 63 60 49 44 41 39 43 42 41 41 39 39 37 38 38 36 36 33 32 32 31 32 31 30 28 28 28 27 27 26 25 24 24 23 23 22 22 20 20 20 19 18 17 16 15 15 15 15 14 16 15 14 15 13 13 13 13 12 12 12 11 12 11 11 11 10 10 10 10 10 10 11 11 11 10 10 11 10 10 9 9 10 9 10 10 10 10 8 9 10 9 10 10 10 9 9 9 9 9 8 8 8 8 8 8 8 7 8 8 8 8 8 7 7 7 7 7 7 4 5 7 4 -9999 -9999 -9999 -9999 -9999 -9999 -9999 -9999 -9999 -9999 -9999 -9999 -9999 -9999 -9999 -9999 -9999 -9999 -9999 -9999 -9999 -9999 -9999 -9999 -9999 -9999 -9999 -9999 -9999 9 8 8 5 8 11 10 10 6 5 5 5 5 5 6 8 8 8 8 9 9 10 9 9 9 8 9 8 9 9 9 10 10 10 10 10 9 9 9 9 9 9 9 10 10 11 11 11 11 12 12 12 13 13 13 13 13 13 13 14 14 14 15 15 14 15 15 15 14 15 15 15 13 13 13 16 13 13 16 18 18 19 19 19 20 20 20 20 20 20 17 16 18 19 18 17 15 15 15 15 15 15 15 14 15 17 17 18 21 24 25 27 28 28 28 30 36 44 49 50 48 43 45 50 50 50 54 64 67 69 77 80 73 80 78 84 82 76 81 77 81 87 77 73 80 84 93 101 105 107 100 94 89 85 87 80 82 76 61 50 59 70 66 77 84 100 105 104 121 117 99 109 92 99 105 102 111 106 107 113 102 93 88 83 84 79 71 69 68 75 71 66 63 60 62 62 59 55 55 50 49 50 46 45 42 40 23 19 28 36 28 24 27 27 33 34 39 43 48 54 52 56 58 58 61 75 70 59 59 60 62 61 60 59 63 65 64 64 65 63 66 70 77 81 84 85 88 90 99 110 108 105 101 100 136 120 102 121 105 101 109 138 140 127 108 104 108 114 108 112 118 151 185 158 133 126 133 145 140 144 141 136 134 130 135 128 141 154 143 142 140 136 142 163 146 140 133 130 130 139 149 157 161 160 164 173 180 186 188 191 197 209 212 204 203 209 223 228 246 239 229 227 241 264 259 241 232 225 228 236 227 214 206 200 194 195 200 239 232 208 197 222 255 267 265 254 249 255 269 276 283 294 292 305 334 337 335 326 307 254 308 280 230 236 268 233 221 223 227 227 232 229 234 235 231 227 244 292 331 336 321 320 327 303 259 244 235 234 237 240 230 229 239 248 242 240 240 244 248 260 258 263 247 239 239 228 221 219 223 240 262 270 255 235 219 210 204 203 203 209 200 201 210 201 196 199 205 204 206 208 207 200 196 189 195 196 199 202 220 224 217 223 233 246 260 279 284 299 313 321 339 352 359 362 369 371 373 377 377 383 398 401 416 432 460 481 495 496 482 509 533 542 544 562 583 600 577 604 646 691 674 667 650 677 685 673 657 666 632 594 580 561 524 526 528 506 521 526 520 506 512 519 525 514 515 497 496 501 477 468 471 448 443 433 429 433 432 433 415 415 423 430 419 385 370 362 374 375 402 414 403 384 361 361 392 386 382 348 373 400 402 406 424 423 541 717 579 487 476 491 503 528
107 102 98 91 85 80 68 58 55 52 49 52 57 121 152 125 97 69 56 53 50 45 45 45 42 43 42 40 38 38 38 37 36 34 33 32 32 32 31 31 30 30 29 28 27 26 25 25 25 23 23 22 22 21 20 20 19 19 18 17 17 16 16 15 15 17 15 15 15 14 14 13 13 13 13 13 12 13 12 11 11 11 10 10 10 10 10 10 11 12 11 10 11 10 10 9 9 9 10 11 10 9 10 8 10 11 10 10 10 10 10 9 9 9 9 9 9 9 9 8 8 7 7 7 8 8 8 8 8 8 9 7 7 7 8 8 7 4 -9999 -9999 -9999 -9999 -9999 -9999 -9999 -9999 -9999 -9999 -9999 -9999 -9999 -9999 -9999 -9999 -9999 -9999 -9999 -9999 -9999 -9999 -9999 -9999 -9999 -9999 -9999 -9999 -9999 9 7 9 5 7 9 10 9 6 5 5 5 5 5 5 8 9 9 9 9 8 9 9 8 8 8 9 8 9 9 9 9 11 10 9 10 10 10 9 9 9 9 9 9 10 10 10 10 10 11 11 12 12 13 14 13 13 13 13 13 13 14 14 14 13 13 14 14 14 14 13 13 13 12 10 11 12 15 16 17 17 18 19 19 20 20 19 16 17 21 16 16 20 21 16 15 15 15 16 15 15 15 15 15 15 15 18 19 23 20 24 29 33 33 38 43 37 44 50 48 47 44 44 45 50 51 50 56 61 72 77 71 78 86 84 82 74 73 73 79 84 80 72 75 81 84 80 91 98 106 100 92 85 82 77 73 75 78 73 59 52 62 72 80 81 86 96 98 106 99 94 95 90 96 95 109 111 100 96 103 97 85 81 80 74 74 75 63 66 70 76 74 68 65 66 61 58 52 50 48 52 51 49 47 46 45 30 18 24 31 26 27 24 32 33 34 37 40 48 50 49 54 55 56 68 82 66 63 63 63 66 65 64 63 64 68 68 66 66 68 72 76 78 81 82 84 87 90 93 99 105 103 96 88 104 122 100 102 101 98 113 128 117 106 100 101 113 107 102 104 121 124 133 167 131 123 128 137 136 138 135 131 128 126 129 135 155 158 172 151 151 138 140 151 152 140 132 131 131 139 145 156 160 166 168 173 189 197 192 195 205 225 226 209 216 234 238 243 240 240 238 228 246 262 269 268 263 250 245 244 223 215 237 231 215 200 208 226 248 229 207 236 250 274 286 266 258 266 270 281 285 294 297 311 340 351 337 329 296 282 307 262 240 254 282 252 224 234 235 241 238 240 246 247 246 233 249 282 327 334 329 336 329 294 272 252 244 251 251 245 233 235 235 241 245 249 252 249 254 251 246 245 251 243 246 238 230 227 234 237 253 262 246 228 228 223 209 206 205 207 203 199 203 199 196 198 217 230 211 219 215 210 198 192 193 195 196 198 209 224 226 234 248 256 259 262 267 276 292 311 332 340 346 357 366 368 374 378 383 394 407 416 424 446 463 476 478 471 479 497 508 520 532 554 590 620 623 635 676 671 660 684 688 714 730 721 700 689 651 624 585 553 537 517 519 515 503 505 512 501 498 508 512 498 503 503 498 489 494 490 484 465 453 448 443 440 434 422 413 416 428 444 440 410 428 437 401 403 404 402 393 387 386 379 379 393 386 360 376 394 417 420 409 407 458 615 577 515 496 488 503 542
125 108 106 104 100 92 81 70 57 51 51 59 101 257 216 182 133 104 75 68 63 54 51 46 45 47 45 42 42 40 39 38 37 35 33 33 32 33 31 32 31 31 30 28 26 27 27 26 25 24 23 22 21 21 20 19 19 18 17 17 17 17 16 15 15 17 16 15 14 14 14 14 14 13 13 13 13 15 13 11 11 11 11 11 11 10 10 10 10 10 10 10 10 10 10 9 10 8 9 10 9 8 10 10 10 10 10 10 11 10 10 10 9 9 10 10 10 9 9 8 8 7 7 8 8 8 8 8 7 9 9 9 8 8 9 9 9 5 4 -9999 -9999 -9999 -9999 -9999 -9999 -9999 -9999 -9999 -9999 -9999 -9999 -9999 7 4 -9999 -9999 -9999 -9999 -9999 -9999 -9999 -9999 -9999 -9999 -9999 -9999 -9999 8 8 8 7 5 9 9 10 8 5 5 5 5 5 5 7 9 9 8 8 8 8 10 10 9 8 9 9 9 9 9 10 10 10 9 9 10 10 9 9 9 9 9 9 9 9 10 10 10 11 11 11 12 12 13 13 13 13 13 13 13 13 15 16 13 13 15 15 14 14 13 11 11 12 11 8 11 10 11 13 16 17 18 19 17 15 16 15 15 17 16 18 19 20 16 15 15 15 14 15 15 15 16 16 17 15 17 19 32 31 25 29 31 33 34 36 40 46 48 49 50 49 45 46 49 50 56 59 62 63 67 71 75 81 79 74 72 73 76 72 70 65 70 86 90 93 83 79 101 106 109 102 93 84 80 80 72 70 71 61 51 65 74 75 77 89 86 88 84 77 77 80 78 87 98 99 104 108 99 91 89 90 94 88 86 73 70 65 59 66 67 72 70 67 65 63 59 58 56 52 48 49 49 45 44 46 33 18 23 28 24 34 23 30 32 32 35 39 47 47 48 52 52 55 79 75 63 66 65 65 67 69 67 67 65 67 74 71 70 70 70 72 75 78 80 86 87 87 94 102 102 102 92 86 92 110 98 94 101 158 152 113 101 99 96 97 108 103 97 106 106 113 124 141 130 121 126 126 125 130 129 125 124 123 125 129 147 150 165 158 151 141 140 147 143 138 133 132 133 140 146 149 155 162 162 172 193 200 202 207 219 229 218 220 227 241 234 232 218 228 235 244 255 262 280 275 273 260 247 232 215 275 310 315 269 214 211 228 249 224 209 230 245 258 293 291 278 275 271 284 292 304 307 316 344 345 331 320 340 325 317 272 259 293 286 250 235 232 246 249 241 258 259 264 261 239 257 305 339 330 327 339 340 320 271 254 249 252 261 247 236 242 245 245 244 260 264 257 258 252 247 246 254 249 254 248 238 238 245 252 258 257 235 230 224 210 207 211 215 207 205 202 202 208 206 207 228 222 226 229 223 211 199 195 197 198 196 193 208 238 238 253 259 265 275 280 289 287 297 313 324 332 336 349 360 367 378 385 391 403 414 426 445 457 455 455 444 459 484 504 518 534 532 571 621 641 639 657 655 645 660 674 707 731 751 703 670 660 646 642 607 577 552 525 499 508 501 483 487 496 486 492 499 492 480 487 495 490 489 487 480 482 464 464 462 456 451 442 432 433 442 460 460 445 438 424 412 424 424 426 434 437 418 403 390 386 380 360 359 385 395 407 429 431 414 430 463 502 518 524 519 521
118 111 117 132 131 112 92 83 68 58 56 55 91 180 120 165 227 218 142 88 76 60 56 50 48 50 49 44 42 40 39 37 36 35 35 33 34 34 34 33 31 30 29 28 27 28 27 26 25 24 23 21 21 20 21 20 19 18 19 18 17 17 17 15 16 16 16 16 15 15 15 15 14 14 14 13 13 16 14 12 12 12 12 13 11 11 11 11 10 10 10 10 10 10 10 10 10 9 10 9 8 10 9 10 11 11 11 11 11 11 10 10 10 9 10 10 10 10 9 9 9 7 8 8 8 8 8 8 8 8 8 8 8 7 9 9 9 7 7 5 -9999 4 8 -9999 -9999 -9999 -9999 -9999 -9999 -9999 -9999 4 8 5 -9999 -9999 -9999 -9999 -9999 -9999 -9999 -9999 -9999 -9999 -9999 -9999 -9999 -9999 7 8 8 6 7 9 9 10 6 5 5 5 5 5 7 9 9 8 8 9 9 8 8 8 8 9 8 9 9 9 9 9 10 10 9 9 10 10 10 9 9 9 9 9 9 9 10 10 10 10 10 11 11 13 13 13 12 12 12 12 13 14 13 13 12 13 13 13 13 12 12 12 8 9 9 8 12 15 15 13 14 15 17 15 15 15 15 15 15 18 20 20 17 15 15 15 15 15 15 15 15 15 16 16 16 19 23 34 32 30 31 35 34 38 39 45 44 46 48 49 44 43 45 46 52 54 71 81 75 66 70 68 69 70 70 66 72 67 70 70 75 79 83 82 88 92 91 89 92 100 97 93 88 84 82 78 77 63 60 47 59 67 65 70 72 71 71 74 91 85 94 90 83 95 102 111 103 102 100 97 101 101 101 93 83 74 66 61 59 64 67 66 65 62 55 58 57 55 48 45 44 46 45 41 37 26 18 25 27 24 32 23 33 31 32 36 41 43 43 46 48 49 55 80 66 59 61 62 66 70 71 69 71 67 68 71 74 76 75 72 74 75 77 79 81 83 88 98 101 100 107 95 89 87 93 91 98 116 124 131 99 96 95 93 94 97 99 93 95 102 109 123 127 124 122 120 118 117 125 122 120 121 121 121 125 132 140 142 137 138 145 143 146 140 137 133 134 136 140 151 157 158 171 167 179 191 198 219 267 229 220 221 220 213 220 221 225 218 219 237 251 253 255 263 274 274 256 249 248 240 318 336 305 285 239 206 230 245 231 225 222 227 244 275 295 292 298 279 287 307 318 321 329 352 341 336 332 353 344 289 268 284 354 338 282 255 231 243 249 254 269 284 279 270 251 302 320 335 335 338 330 301 274 279 286 337 300 262 252 244 248 250 253 247 255 267 264 266 258 249 247 256 260 263 266 247 248 252 261 241 225 219 223 214 209 216 223 217 217 210 211 212 216 211 215 248 247 243 241 212 202 199 197 197 196 199 202 209 228 246 251 261 275 283 287 290 294 299 310 317 327 342 354 365 366 379 393 401 413 419 422 427 430 434 451 455 477 516 522 530 549 572 596 612 604 621 658 638 622 648 661 687 681 684 657 635 615 616 606 582 557 543 545 509 493 502 484 480 479 476 496 498 482 475 472 489 495 484 492 471 465 469 463 457 459 454 443 443 459 462 459 464 456 444 429 431 436 440 444 451 467 433 421 403 384 370 359 357 391 394 398 409 435 432 441 466 478 485 523 544 532
112 117 127 164 212 171 125 104 71 59 57 54 66 86 121 245 378 288 189 153 111 75 69 63 57 55 56 50 46 45 42 38 38 38 37 35 35 37 34 33 31 29 30 30 29 29 27 27 26 25 23 23 22 21 21 21 19 19 19 18 18 17 17 16 17 17 18 16 16 16 16 15 15 15 15 14 14 13 16 13 13 13 13 12 12 11 11 11 11 10 11 10 10 10 11 11 10 10 10 9 9 10 9 10 11 11 11 11 11 10 9 9 10 8 9 10 10 10 10 9 9 9 9 9 9 9 9 9 8 8 9 9 7 9 9 9 9 8 7 7 7 8 9 4 -9999 -9999 -9999 -9999 -9999 5 4 9 9 5 4 -9999 -9999 -9999 -9999 -9999 -9999 -9999 -9999 -9999 -9999 -9999 -9999 -9999 9 6 9 7 8 9 9 9 9 6 5 5 5 5 7 9 8 8 8 8 10 9 8 8 8 8 9 9 9 9 8 8 9 9 9 9 10 10 10 10 9 9 9 9 9 9 9 9 10 10 10 10 11 11 12 12 13 13 13 12 12 12 12 12 12 12 12 14 14 13 12 11 8 12 13 15 15 15 16 16 13 13 14 14 15 15 15 15 16 16 19 18 16 14 14 15 15 14 15 16 14 14 15 16 21 31 33 33 29 32 34 35 35 43 40 45 45 46 41 40 42 43 45 49 51 53 77 93 83 65 63 63 73 71 61 67 64 70 80 81 80 77 80 92 98 100 99 100 89 89 85 80 77 73 71 67 65 60 51 47 53 62 67 68 68 73 86 89 103 104 109 105 99 94 105 117 105 103 100 106 109 110 103 98 84 81 75 64 59 60 61 64 61 60 56 52 50 50 46 45 40 40 43 40 35 24 19 22 26 25 23 31 33 31 33 39 41 38 41 42 44 48 53 68 55 56 58 62 64 68 67 73 77 72 74 73 74 77 77 75 76 78 80 82 83 86 93 100 96 96 98 95 88 84 86 84 89 102 103 97 90 91 89 90 90 98 100 92 97 110 106 111 118 122 120 112 114 114 120 118 120 117 116 121 120 122 126 127 129 135 147 148 145 142 136 135 136 142 140 148 159 164 176 176 193 202 217 207 213 209 203 215 204 203 210 206 204 207 212 230 254 264 265 267 274 269 266 270 280 252 292 313 314 303 228 211 228 248 239 233 228 246 248 246 256 277 299 300 324 325 338 368 375 361 349 344 332 350 317 281 285 334 355 339 257 237 252 253 271 266 285 321 321 291 268 288 358 341 349 337 310 281 272 291 269 288 329 273 254 256 264 259 257 263 253 261 269 276 267 258 256 250 267 267 270 252 254 257 240 229 222 238 240 219 227 221 236 227 227 221 224 228 224 215 223 244 255 243 222 216 217 211 203 211 206 208 207 200 210 229 225 238 262 290 295 297 303 306 307 318 332 347 355 358 361 377 390 402 414 426 428 429 439 446 471 486 487 504 517 539 551 551 567 581 594 608 627 607 634 659 660 655 656 668 639 612 593 598 570 558 539 521 525 518 487 488 476 483 475 479 495 496 487 476 469 474 485 474 476 475 465 455 456 462 455 453 440 449 450 453 454 457 463 453 447 454 446 449 455 458 465 442 441 404 398 394 377 360 398 401 410 409 426 430 438 446 445 461 493 520 515
110 112 128 161 226 216 202 149 71 59 57 55 65 77 113 272 390 313 271 246 197 167 79 72 83 66 64 68 59 60 51 43 44 41 37 38 38 39 37 34 31 31 31 30 30 30 29 28 27 27 25 24 24 22 22 22 21 20 20 18 18 18 18 18 17 18 18 18 17 17 16 16 15 15 15 15 15 14 16 15 15 13 13 12 12 12 11 11 11 11 10 10 10 10 10 10 10 10 10 10 9 9 10 10 10 10 9 11 9 9 9 8 11 9 9 11 9 10 10 10 10 10 10 9 9 10 9 9 9 10 10 10 7 9 9 9 9 9 7 8 7 7 9 6 -9999 -9999 7 6 7 9 8 8 9 7 4 6 7 -9999 -9999 -9999 -9999 -9999 -9999 -9999 -9999 -9999 -9999 -9999 10 8 8 8 7 9 8 8 9 7 9 9 6 5 6 8 8 8 8 10 9 9 9 8 9 8 9 8 9 8 9 8 8 9 9 10 9 10 9 10 9 9 9 9 9 9 9 9 9 9 10 10 10 10 11 10 10 11 12 13 12 11 12 12 12 12 12 12 12 13 13 10 8 13 14 14 14 14 15 16 16 14 16 16 17 17 19 18 15 16 14 14 15 14 14 15 15 15 14 16 16 15 21 25 24 30 35 34 31 32 31 35 38 38 40 42 46 43 40 39 41 43 45 47 49 50 68 79 70 59 58 62 68 65 60 62 65 75 72 69 72 85 84 86 99 105 106 106 103 100 91 82 84 85 83 76 64 70 57 45 62 73 77 78 82 84 91 98 101 103 105 103 101 102 107 114 103 94 93 101 101 100 103 97 93 77 73 67 63 57 58 61 65 55 52 53 48 46 43 42 40 37 38 39 36 25 19 19 24 19 29 34 33 30 35 40 37 37 40 43 45 46 48 50 51 53 56 61 65 69 66 70 69 71 72 72 73 74 71 70 73 77 81 84 86 91 98 100 95 89 88 90 88 84 83 84 87 92 94 89 88 84 83 84 94 95 97 92 100 96 97 109 111 111 111 109 111 109 110 114 116 113 119 118 122 124 126 130 134 142 146 149 147 142 140 140 138 144 149 154 161 166 181 202 186 203 194 198 197 198 197 204 193 198 192 196 195 202 218 229 239 254 259 265 275 278 269 271 281 273 287 293 246 226 221 226 242 245 237 232 254 248 240 239 242 262 313 328 337 337 332 348 370 361 348 345 341 349 316 309 345 337 346 335 267 251 281 262 303 276 308 328 349 301 320 273 320 358 330 320 301 274 289 292 282 270 318 311 287 281 270 271 260 273 281 266 264 275 266 268 263 251 261 272 272 263 264 253 235 224 229 249 234 237 257 237 251 245 247 261 261 250 224 224 234 241 249 243 234 234 216 211 220 235 229 222 212 209 221 239 246 242 247 281 298 304 310 316 322 326 335 341 346 348 358 369 383 403 421 429 434 435 456 468 475 501 510 532 535 547 575 587 566 563 573 580 589 617 628 657 682 659 640 653 635 610 603 591 576 565 545 532 513 504 493 481 485 469 464 491 486 491 484 484 474 462 474 477 473 465 469 460 453 450 452 452 447 443 456 459 456 463 465 462 455 461 467 471 476 483 479 469 443 425 433 422 396 371 395 407 410 421 429 441 454 459 452 466 483 502 496
100 112 139 143 262 366 285 163 72 60 63 60 67 75 99 193 342 403 355 275 183 129 92 76 86 89 74 136 125 79 63 50 45 42 38 39 39 41 39 37 36 37 34 32 32 31 30 28 29 27 26 26 25 23 24 23 22 21 20 19 18 19 19 18 18 18 19 18 18 18 17 16 16 16 16 17 19 18 18 16 14 13 13 13 13 12 12 11 11 11 11 11 10 10 10 10 10 10 10 10 9 9 10 10 9 10 9 10 10 9 10 10 11 11 11 10 10 11 10 10 10 11 10 10 10 10 10 10 10 9 9 9 10 9 9 9 9 9 8 9 9 8 9 9 8 8 8 9 8 8 8 8 8 9 9 9 8 -9999 -9999 -9999 -9999 -9999 -9999 -9999 -9999 -9999 -9999 -9999 9 9 8 8 8 8 7 8 8 9 9 8 8 7 8 9 9 8 9 9 9 8 8 8 8 7 9 8 9 9 9 8 8 9 9 10 10 9 9 9 10 9 9 9 9 9 9 9 9 9 10 9 10 10 10 10 10 10 11 10 11 11 11 12 12 13 13 13 13 11 11 8 9 14 13 14 14 14 14 15 16 16 16 16 17 17 19 19 16 15 15 13 15 14 14 15 15 14 13 14 19 24 28 28 31 31 36 35 32 33 35 36 41 37 39 41 42 39 39 40 41 41 44 46 44 45 53 56 57 52 55 61 56 54 62 62 63 65 68 80 84 86 90 89 86 93 104 107 109 106 98 94 86 88 80 69 74 70 60 47 63 68 63 68 75 80 79 84 96 98 100 94 96 99 104 113 107 99 86 86 97 88 96 89 83 85 80 77 67 57 53 55 58 59 56 53 52 48 41 38 39 37 36 36 34 28 17 17 18 19 31 32 29 32 38 35 34 36 38 40 40 42 44 48 50 53 55 58 63 71 64 68 68 64 66 67 68 68 69 72 73 75 77 81 88 94 95 97 96 88 85 84 86 83 87 85 85 85 90 88 82 84 80 85 85 85 89 85 90 90 92 91 102 105 101 105 111 120 115 114 119 120 126 123 122 128 134 137 138 140 144 152 148 143 144 142 145 152 149 156 165 170 184 197 185 185 192 189 189 192 193 190 185 190 190 194 197 210 217 227 238 245 253 262 284 289 264 259 263 290 293 267 242 235 233 243 250 243 238 257 242 244 246 255 252 280 308 328 325 323 329 360 395 364 341 346 341 350 324 335 356 327 304 292 266 267 298 291 331 337 325 346 357 344 336 304 296 354 341 304 295 298 299 300 288 284 283 354 364 346 323 275 265 276 286 270 275 279 271 269 260 254 262 271 276 272 263 246 235 229 244 260 238 239 262 257 267 266 265 289 278 238 230 235 241 259 263 248 230 221 222 232 247 260 247 234 214 228 248 257 261 277 265 250 296 307 319 324 325 328 338 340 343 349 358 362 374 392 419 441 448 447 456 465 481 500 527 545 559 561 578 612 595 596 620 622 623 651 668 686 704 677 645 653 642 629 608 588 567 561 544 531 517 507 503 499 490 469 464 487 489 482 480 475 472 463 459 460 462 462 465 465 457 451 452 448 450 453 451 455 465 461 466 469 462 460 464 466 473 478 494 514 609 553 491 447 442 421 388 410 418 423 434 431 442 470 481 495 501 491 471
89 89 101 101 162 168 137 81 65 61 67 69 67 73 84 109 227 342 366 260 215 185 159 149 99 91 80 93 151 123 68 54 49 44 43 42 41 43 41 40 41 38 35 34 33 32 32 30 30 29 27 27 26 26 25 23 23 21 20 20 20 19 20 19 19 19 19 19 19 18 18 17 17 19 20 20 18 16 16 15 15 14 14 14 13 13 12 12 12 12 11 11 11 10 10 10 10 10 10 10 9 9 10 10 10 9 9 9 9 9 10 10 11 11 9 9 10 10 10 10 10 10 10 10 10 10 10 10 9 8 9 9 9 9 9 9 8 8 8 7 7 7 7 7 8 9 9 8 9 9 8 9 8 9 10 9 -9999 -9999 -9999 -9999 -9999 -9999 -9999 -9999 -9999 -9999 -9999 -9999 -9999 10 8 9 8 8 8 8 8 9 8 8 9 9 9 9 9 9 9 8 8 9 8 9 8 8 8 8 8 10 10 10 10 9 9 9 9 9 9 9 10 10 9 9 9 9 9 9 9 9 9 9 9 9 9 9 10 10 10 10 10 11 11 11 11 12 12 12 12 11 8 7 12 13 12 13 14 14 14 15 15 15 15 16 16 17 18 16 15 15 16 14 14 13 13 15 14 13 13 16 22 26 28 30 33 33 34 35 34 35 37 37 37 37 39 39 38 36 35 38 40 39 40 43 46 49 47 48 49 56 62 70 69 66 68 69 67 76 82 89 93 93 95 101 103 102 107 105 106 108 107 104 94 92 77 83 78 72 68 51 51 62 72 81 90 102 93 104 107 92 86 90 97 102 100 100 107 96 93 83 83 83 86 89 78 82 83 79 75 61 51 50 50 57 58 52 51 47 41 39 39 39 37 33 33 30 23 17 17 20 30 29 27 33 38 33 33 39 42 41 43 48 49 49 52 52 54 57 59 62 62 64 64 58 60 58 63 67 71 76 78 81 81 82 86 88 89 92 96 91 84 84 81 84 81 79 82 83 82 83 79 81 79 79 78 79 81 82 82 87 98 98 101 100 105 122 120 117 123 117 119 123 127 126 126 126 131 133 137 141 147 154 155 152 156 154 160 162 168 165 171 174 188 192 178 172 182 174 177 189 186 181 179 187 186 193 200 217 225 224 232 242 249 254 281 285 271 260 265 264 276 268 245 246 249 266 276 269 260 246 248 256 250 253 270 267 272 288 306 321 328 358 402 363 343 347 340 347 332 349 345 336 328 281 264 314 335 332 328 344 353 343 355 365 338 303 341 353 336 322 302 291 316 312 308 298 291 304 385 364 395 321 272 288 278 283 279 287 280 276 266 259 265 273 284 286 267 259 256 235 250 272 269 253 265 274 285 302 306 313 300 255 268 278 278 290 278 252 253 239 244 257 266 270 258 241 227 228 250 270 280 278 271 255 302 316 322 322 329 333 338 346 351 346 359 369 371 399 421 447 461 453 460 467 475 494 529 555 574 590 601 605 594 596 607 623 646 659 658 662 662 655 639 642 641 631 604 579 562 553 541 522 507 500 492 494 493 480 464 462 479 473 476 465 460 466 456 455 457 460 458 460 464 459 456 453 459 464 471 459 459 465 464 469 471 470 462 469 476 480 543 647 835 819 777 697 519 431 403 404 408 412 426 415 425 445 473 499 512 504 476
95 84 90 93 71 70 65 64 65 65 65 74 74 72 78 91 134 206 249 290 333 295 274 350 204 85 85 91 125 102 68 60 57 52 46 41 42 44 43 41 41 37 37 36 35 34 34 33 32 31 29 28 27 27 25 25 24 23 22 22 21 21 21 20 20 20 19 20 19 19 20 18 18 20 20 19 17 17 17 16 16 15 15 15 14 13 12 12 12 12 12 11 11 11 10 10 10 10 10 11 10 10 10 10 9 9 9 9 9 9 10 10 10 10 9 9 9 10 10 9 9 10 10 10 10 10 9 9 9 9 9 9 9 9 9 10 9 8 7 6 6 7 7 7 7 9 8 8 8 8 9 8 9 10 10 5 -9999 -9999 -9999 -9999 -9999 -9999 -9999 -9999 -9999 -9999 -9999 -9999 -9999 10 9 8 8 7 8 8 8 8 9 8 8 9 8 9 9 9 8 8 8 9 9 8 10 9 9 9 10 8 9 10 9 10 9 9 9 9 9 9 10 9 10 9 9 9 8 8 9 9 9 9 9 9 9 9 9 9 9 10 10 10 10 11 11 11 11 11 11 11 8 9 12 12 12 13 14 14 14 14 14 15 15 16 15 14 13 13 14 17 14 14 13 13 13 14 14 18 22 24 27 26 31 33 36 36 37 37 35 35 37 38 39 37 37 35 36 35 37 38 39 39 40 45 45 44 45 51 58 71 80 80 75 74 69 67 73 72 79 87 90 93 95 99 102 100 103 104 99 98 107 110 96 82 77 84 80 76 68 60 47 64 69 74 82 93 95 97 95 85 80 90 93 101 95 96 109 104 100 93 85 75 78 75 77 75 72 71 64 56 52 52 50 53 51 48 45 42 43 41 44 41 39 36 36 33 34 20 16 16 26 29 27 34 34 30 35 39 44 46 48 48 46 47 49 50 55 55 58 60 61 61 55 53 57 63 67 71 72 78 79 81 77 75 80 82 84 86 90 93 88 83 76 77 75 78 85 79 77 78 80 77 78 76 76 81 85 92 86 85 85 91 102 107 115 129 136 128 129 119 123 123 133 128 130 134 131 131 137 143 149 153 156 161 162 164 169 170 168 178 190 187 187 189 181 183 175 170 175 183 176 175 179 181 184 194 207 223 220 225 235 245 252 265 287 294 275 270 268 265 261 256 255 269 288 285 259 254 251 256 251 256 262 257 262 265 258 264 280 293 302 372 394 353 346 344 342 344 337 347 344 348 346 309 296 303 334 347 349 335 348 350 346 362 358 319 334 345 316 306 300 290 317 334 331 305 325 299 330 368 327 324 280 290 287 295 306 298 288 287 275 264 276 276 287 290 270 249 245 245 264 270 264 269 280 296 303 311 321 324 297 257 278 291 302 300 285 273 259 255 274 273 283 275 255 254 235 249 267 277 271 262 279 271 294 315 314 305 311 319 335 343 351 363 363 375 381 399 421 442 459 476 467 472 497 509 523 543 570 598 609 595 581 585 595 609 624 625 619 623 637 652 652 643 631 629 603 580 556 536 532 519 501 498 493 484 471 469 463 460 468 469 470 460 457 466 457 458 464 459 459 455 467 480 477 470 458 468 473 465 471 466 475 472 473 480 478 477 482 512 537 540 635 655 715 866 770 470 414 407 419 410 408 413 419 443 454 486 499 496 474
105 92 79 75 75 90 80 71 66 63 63 63 66 72 72 82 103 188 200 302 437 388 304 321 190 86 136 82 73 69 64 63 59 53 45 42 43 44 45 42 40 38 39 39 37 36 35 35 33 32 31 30 28 28 26 26 25 24 24 23 22 22 21 21 21 21 20 21 20 20 21 20 19 19 20 18 18 18 18 17 16 15 15 15 14 14 13 12 12 12 12 11 11 11 10 10 11 10 10 12 10 10 10 11 10 10 9 9 9 9 10 9 9 10 9 9 9 10 9 9 9 9 9 9 10 9 9 10 9 9 9 9 9 9 9 9 9 8 7 7 7 7 7 7 7 7 7 7 8 9 9 10 10 10 10 5 -9999 -9999 -9999 -9999 -9999 -9999 -9999 -9999 -9999 -9999 -9999 -9999 -9999 -9999 10 9 8 7 7 8 8 8 8 8 8 9 9 9 9 9 8 -9999 -9999 -9999 -9999 6 7 9 8 8 10 10 9 10 9 9 9 9 9 9 9 9 9 10 9 9 9 10 8 8 9 9 9 9 9 9 8 9 9 9 9 9 10 10 10 11 11 11 11 11 11 12 9 7 9 13 12 13 13 14 14 13 14 14 15 15 13 13 13 13 14 13 13 13 13 13 13 14 15 19 21 25 28 31 34 35 37 37 37 37 37 36 37 38 38 34 34 34 36 35 36 37 37 38 39 44 43 47 51 52 63 81 95 88 80 78 74 71 75 77 82 84 85 86 88 90 88 84 83 91 91 95 104 108 92 79 82 74 72 75 72 67 47 52 62 70 77 90 96 91 79 78 74 79 84 89 86 101 106 95 97 91 91 84 74 73 69 67 64 62 54 54 52 49 48 47 47 47 44 43 46 48 48 44 42 40 40 37 39 31 17 15 15 19 27 29 30 30 32 39 38 41 45 43 43 45 47 47 51 52 60 62 61 57 52 58 64 69 71 73 75 78 74 75 75 72 76 77 78 82 84 84 85 80 74 72 73 77 83 79 74 77 77 76 78 74 78 81 84 88 93 85 86 89 90 92 101 111 119 123 125 125 130 126 135 137 139 137 131 134 142 147 147 156 154 157 162 164 161 164 168 171 187 184 183 177 172 181 175 167 169 172 171 182 181 179 181 188 192 208 211 221 236 246 251 266 272 280 281 267 263 258 263 270 273 293 275 264 267 265 258 262 258 254 263 262 262 283 272 263 273 286 326 418 375 353 355 347 344 341 339 353 347 345 344 310 317 326 319 344 353 340 333 348 349 358 351 337 344 334 308 309 294 296 313 329 315 321 317 301 311 349 326 325 308 299 292 299 310 293 285 276 269 269 279 286 288 280 270 263 265 278 295 282 284 287 297 299 319 321 336 334 287 287 313 308 323 306 284 274 267 258 290 290 275 262 258 271 261 248 253 251 252 253 271 284 280 290 295 306 316 331 331 326 341 362 378 382 401 421 442 450 465 494 494 488 487 513 544 560 577 588 595 578 573 594 602 615 612 592 595 617 632 656 633 637 625 610 607 583 566 538 518 520 502 491 487 479 465 464 461 470 470 466 462 456 456 458 459 456 461 460 459 454 462 465 476 487 472 479 472 475 478 474 478 472 469 475 477 484 486 491 502 531 542 511 541 743 883 528 431 410 417 438 413 412 418 432 457 463 479 474 466
88 83 83 87 85 98 88 79 72 65 65 66 66 68 73 74 79 129 164 236 375 318 195 141 105 86 100 91 74 66 60 59 56 52 47 43 43 45 44 42 40 41 40 41 39 38 38 49 35 34 33 31 30 29 28 28 27 27 25 24 23 23 22 22 22 22 21 22 21 22 22 20 20 19 21 21 19 19 19 18 17 16 16 16 15 14 14 13 13 12 12 12 11 11 11 11 11 10 10 10 11 10 10 11 10 9 9 9 10 9 9 9 9 10 9 10 10 9 10 9 9 9 9 9 9 8 9 9 9 9 10 10 9 9 10 9 10 9 7 6 7 8 8 7 8 7 7 9 9 9 10 9 10 11 11 7 4 -9999 -9999 -9999 -9999 -9999 -9999 -9999 -9999 -9999 -9999 -9999 -9999 -9999 -9999 9 8 8 8 8 9 8 9 9 9 9 -9999 -9999 -9999 -9999 -9999 -9999 -9999 -9999 -9999 -9999 -9999 -9999 5 6 8 8 9 10 10 10 10 9 8 8 8 9 9 10 10 10 9 9 9 8 8 9 9 9 9 9 9 10 9 10 10 10 10 10 10 10 10 11 12 11 11 12 10 8 10 13 14 13 14 13 14 14 13 14 16 14 13 13 13 14 14 14 13 13 13 13 13 14 19 20 22 25 26 30 33 35 36 37 37 36 36 37 37 37 35 34 34 33 35 35 35 36 38 39 39 42 38 40 47 48 63 79 88 81 83 85 80 68 70 72 82 78 83 83 83 84 81 83 79 92 94 99 100 100 93 80 72 69 67 65 67 65 56 49 65 76 86 90 79 78 71 71 79 85 87 89 105 110 113 91 88 86 81 79 76 76 70 67 67 65 57 62 58 54 52 48 46 47 45 49 54 57 53 49 48 46 47 44 43 36 20 15 15 15 20 28 26 29 33 33 35 39 41 39 41 43 44 48 50 53 57 57 57 51 55 60 63 67 64 65 70 72 69 72 70 69 72 75 76 81 82 77 76 80 76 71 71 76 80 80 73 72 75 76 77 80 86 90 92 91 94 93 92 91 95 101 100 102 107 112 118 126 133 138 141 145 140 139 132 135 142 147 152 157 152 157 162 148 144 145 150 159 166 169 178 179 168 165 164 160 164 173 179 185 185 183 186 189 195 203 207 224 238 248 249 254 261 265 279 273 274 263 263 278 294 278 272 276 284 277 273 277 271 264 262 273 269 269 276 279 272 300 321 399 377 366 357 350 346 344 340 354 352 347 328 344 324 324 319 333 339 352 343 343 353 358 342 350 353 337 305 313 295 303 319 334 334 329 307 302 316 311 318 339 333 300 300 305 309 289 279 281 278 271 286 299 292 290 280 281 278 286 302 291 300 307 314 311 320 334 347 318 297 293 311 317 322 307 279 279 281 271 286 298 282 277 278 276 262 273 282 260 254 255 258 268 297 300 300 316 307 320 313 324 345 359 371 386 403 413 424 438 463 490 505 507 517 508 533 536 545 570 576 567 592 603 613 617 614 592 604 646 620 627 609 619 619 595 588 582 571 545 520 506 507 491 477 476 463 457 457 459 472 461 465 453 453 447 453 452 452 453 457 453 451 455 465 465 466 471 467 469 466 466 469 465 468 471 472 474 480 500 513 513 511 500 524 708 902 584 438 421 425 483 427 415 415 423 432 476 467 451 449
85 93 100 120 110 93 90 87 83 78 68 68 67 66 67 70 75 83 95 123 188 176 116 111 97 90 98 113 83 67 57 53 50 50 46 46 48 47 46 44 44 41 42 43 41 40 41 43 36 34 34 33 32 31 30 29 28 28 26 26 25 24 23 23 23 22 22 23 23 23 23 22 21 20 21 24 21 19 19 18 18 17 17 16 16 15 15 14 13 13 13 12 12 11 11 11 11 10 10 10 11 12 10 12 11 10 10 10 10 10 10 10 9 9 9 9 10 9 10 10 10 9 10 10 10 9 9 9 9 9 10 10 10 9 9 9 9 9 9 8 9 9 9 8 8 7 7 8 10 11 10 11 11 11 11 9 8 8 7 -9999 -9999 -9999 -9999 -9999 -9999 -9999 -9999 -9999 -9999 -9999 -9999 -9999 -9999 9 9 9 -9999 -9999 -9999 -9999 -9999 -9999 -9999 -9999 -9999 -9999 -9999 -9999 -9999 -9999 -9999 -9999 -9999 -9999 -9999 4 5 7 8 10 10 10 9 9 8 8 8 9 9 9 10 10 9 10 9 10 9 9 9 9 8 9 10 9 10 11 9 9 9 9 10 10 10 11 11 11 12 12 12 11 11 12 13 14 14 14 13 13 14 14 16 12 12 13 13 14 13 15 13 13 13 14 13 18 21 21 23 25 28 31 32 35 35 37 36 35 35 36 36 35 34 33 34 35 35 34 35 36 36 38 38 41 37 42 47 50 56 66 66 77 89 93 80 64 65 71 80 76 76 80 91 89 86 82 79 87 94 89 87 101 100 83 75 74 80 73 69 62 56 49 65 70 83 85 71 68 70 78 84 94 95 99 111 131 120 106 98 93 87 85 83 79 72 82 76 69 61 73 67 61 57 51 53 53 52 54 63 66 57 55 50 49 50 46 41 37 21 15 19 15 15 25 26 28 29 30 34 35 36 36 37 40 44 47 49 53 54 55 52 48 55 61 65 65 58 61 68 66 65 69 67 67 70 75 73 76 79 77 74 72 72 70 71 76 77 75 71 75 78 81 79 79 84 86 92 93 96 104 100 95 99 103 113 115 118 116 119 119 120 128 130 143 138 134 129 139 146 158 154 157 158 151 146 142 139 145 150 158 160 164 179 179 173 165 164 176 172 182 184 178 174 174 179 186 195 203 210 216 230 250 246 254 259 265 276 285 284 269 285 281 286 287 284 289 293 279 284 289 277 277 266 285 282 285 271 278 279 285 286 328 377 367 359 356 343 341 342 350 359 342 335 351 336 336 323 336 339 346 342 341 349 367 345 349 365 333 314 323 303 319 344 345 347 327 309 317 314 299 315 343 325 302 304 310 310 294 286 289 293 279 289 305 319 313 293 298 284 299 307 299 314 320 326 330 342 364 346 313 341 308 338 344 319 302 315 311 289 301 318 301 289 293 287 278 272 286 281 274 267 269 268 259 273 277 296 303 294 299 312 321 330 347 366 384 417 441 447 437 459 492 521 533 540 527 541 555 558 553 561 586 600 612 618 622 613 595 604 638 611 590 591 594 603 606 593 575 557 542 529 504 493 489 478 470 466 457 452 451 467 454 453 459 448 450 445 450 456 448 450 453 445 449 452 454 457 459 469 474 468 459 462 464 478 491 482 481 490 517 604 657 695 604 547 724 956 792 506 427 427 436 467 421 420 425 438 462 463 448 444
89 97 111 121 112 108 110 108 94 90 75 70 68 65 68 75 80 84 83 92 96 101 101 101 107 107 127 148 80 65 59 57 52 51 51 49 50 50 54 52 45 44 44 43 42 41 41 38 38 38 36 36 34 32 32 32 30 30 28 27 25 25 24 24 23 23 22 23 24 24 24 24 22 22 24 22 21 20 20 19 19 18 18 17 16 16 15 14 14 14 13 13 12 12 12 11 11 10 10 11 10 12 10 11 10 10 10 10 11 11 10 10 10 10 10 9 9 10 10 11 10 11 11 11 10 10 10 10 10 9 10 10 9 9 9 9 9 9 10 10 9 9 9 10 10 7 7 7 9 11 10 10 9 10 10 9 8 9 -9999 -9999 -9999 -9999 -9999 -9999 -9999 -9999 -9999 -9999 -9999 -9999 -9999 -9999 -9999 -9999 -9999 -9999 -9999 -9999 -9999 -9999 -9999 -9999 -9999 -9999 -9999 -9999 -9999 -9999 -9999 -9999 -9999 -9999 -9999 -9999 -9999 -9999 -9999 4 8 8 8 10 10 7 8 8 8 8 8 9 9 9 9 10 10 10 10 9 9 9 9 10 8 8 11 11 9 9 10 10 11 10 10 10 11 11 11 11 11 12 11 10 12 12 13 13 13 14 16 16 13 12 12 14 14 13 13 13 12 13 13 13 17 19 20 22 24 26 28 30 33 35 35 35 36 36 35 36 35 35 33 34 33 33 34 35 34 35 36 38 39 39 37 39 43 47 52 56 59 69 79 82 69 61 73 72 72 78 74 73 84 86 81 85 81 87 85 85 92 100 103 95 89 81 83 79 75 67 59 55 56 73 74 73 59 60 68 78 85 85 92 105 126 119 115 130 118 90 93 90 85 77 83 80 74 65 68 81 72 66 55 52 63 61 65 62 61 64 58 54 50 47 46 45 42 35 27 15 16 18 15 17 27 31 32 35 35 36 38 41 41 41 44 48 50 51 53 51 47 48 56 60 62 59 55 57 61 61 65 65 63 65 68 73 71 72 76 72 70 68 68 69 73 72 73 70 74 77 82 79 83 81 83 84 91 99 99 107 108 114 111 105 108 109 112 114 118 113 113 121 125 134 136 131 131 138 146 142 139 146 137 131 136 144 139 142 153 158 162 178 182 179 165 161 158 175 182 171 168 166 170 172 176 181 186 192 201 216 229 234 229 240 256 295 338 271 274 269 273 275 273 281 284 294 294 287 280 284 285 281 273 284 288 285 280 275 289 283 286 356 413 369 362 349 343 347 345 353 353 336 350 351 354 353 324 346 362 345 347 348 359 367 349 350 362 355 328 324 314 318 349 344 335 327 309 322 308 302 298 335 326 309 321 314 310 295 298 299 304 291 288 314 334 323 303 308 295 309 309 304 311 331 339 338 359 359 339 310 328 319 360 356 327 307 333 303 283 307 310 307 311 304 294 283 285 296 293 285 278 283 265 267 270 279 279 283 292 303 305 310 316 326 350 378 414 457 472 485 476 482 516 545 548 544 543 550 556 568 578 591 596 606 612 628 619 606 599 611 583 594 597 585 601 616 600 581 562 541 514 502 496 478 473 471 470 462 458 449 457 453 447 454 451 447 444 450 452 447 449 454 446 453 464 463 459 463 468 462 466 458 458 470 529 508 491 492 483 490 515 697 854 869 814 816 786 644 543 458 444 502 528 431 422 423 436 461 454 448 450
97 103 121 142 124 117 115 126 118 88 77 70 69 66 68 71 74 79 81 85 86 93 96 103 122 94 88 90 74 65 61 57 56 54 54 52 52 55 60 56 49 48 47 46 43 42 41 38 39 39 38 36 35 35 34 33 33 30 29 28 27 26 25 25 24 24 24 25 25 25 25 25 23 24 24 22 21 20 20 19 19 19 19 18 17 16 15 15 14 14 13 13 13 12 12 11 11 11 10 11 10 11 12 11 10 10 10 10 11 11 11 11 10 12 11 10 9 10 10 11 11 11 11 12 11 10 10 11 10 10 10 10 10 9 10 9 9 9 10 10 10 10 10 10 8 8 8 7 8 11 10 8 8 8 8 9 8 8 -9999 -9999 -9999 -9999 -9999 -9999 -9999 -9999 -9999 -9999 -9999 -9999 -9999 -9999 -9999 -9999 -9999 -9999 -9999 -9999 -9999 -9999 -9999 -9999 -9999 -9999 -9999 -9999 -9999 -9999 -9999 -9999 -9999 -9999 -9999 -9999 -9999 -9999 -9999 -9999 7 6 7 8 10 10 8 7 8 8 8 10 10 9 9 11 10 10 9 9 10 10 10 10 9 10 11 10 10 10 11 11 12 10 11 10 10 11 11 11 12 12 11 12 12 13 13 15 13 14 14 12 12 12 14 14 13 13 12 13 13 13 13 16 19 19 21 22 24 26 27 29 32 33 33 34 35 34 35 34 33 34 33 33 39 36 33 35 33 35 35 37 40 39 37 44 43 43 49 52 55 56 62 61 57 62 68 73 76 77 71 71 72 75 77 82 79 84 82 90 95 93 99 97 84 78 73 79 75 73 65 55 54 67 62 61 61 69 69 72 73 77 90 111 115 126 126 123 119 106 106 92 85 88 85 73 70 71 73 72 68 63 57 55 66 68 68 61 65 58 55 51 48 47 44 42 41 42 33 27 21 15 15 15 19 26 29 36 41 41 42 42 43 45 47 48 47 51 50 49 48 52 55 57 56 54 52 57 55 59 60 61 61 67 71 72 68 67 71 74 69 65 66 67 69 70 68 74 76 80 86 88 91 85 86 91 95 103 105 105 104 105 105 102 103 106 109 114 121 115 110 115 122 129 130 127 125 130 127 122 125 129 126 126 135 141 149 152 162 174 181 175 176 169 162 157 155 163 160 160 163 166 172 176 179 185 191 192 200 207 216 219 233 233 251 303 380 268 267 263 260 265 265 270 284 295 295 296 293 292 296 285 273 271 284 283 296 298 279 299 284 326 358 402 362 350 347 349 347 353 362 345 365 353 364 359 335 359 362 351 357 353 372 361 349 355 382 373 342 322 324 316 340 331 320 309 315 320 307 309 307 314 325 323 328 327 313 303 315 314 315 293 301 324 340 325 310 307 302 316 318 311 314 332 349 342 347 334 314 327 328 307 355 366 332 318 313 290 313 311 329 326 321 312 305 298 301 303 295 288 290 276 283 274 277 287 292 296 295 298 309 315 328 346 359 374 402 433 448 492 520 542 548 555 543 532 540 547 559 568 574 579 583 591 598 604 608 602 581 583 578 582 583 593 597 598 585 568 554 540 516 494 478 475 467 465 462 459 462 457 448 447 445 448 447 446 442 445 448 447 447 453 450 477 496 471 464 471 464 460 456 458 465 481 560 526 512 532 503 515 550 678 954 869 729 660 567 555 546 490 471 616 634 493 459 425 427 451 453 458 459
107 109 115 123 123 120 109 103 93 83 75 72 72 69 70 72 70 74 76 80 88 95 91 91 90 82 77 73 67 64 62 58 57 58 58 56 54 55 61 91 65 53 49 47 47 43 42 42 41 39 39 38 37 36 36 35 33 31 30 28 28 27 27 26 26 25 25 25 25 26 26 26 24 24 24 24 22 22 21 21 21 19 18 18 17 16 16 16 15 14 14 13 13 12 12 11 11 11 12 11 11 11 13 12 11 10 11 10 11 12 11 13 10 12 12 10 10 10 10 10 11 11 12 11 10 10 11 11 10 10 10 10 10 10 10 10 10 10 10 10 10 10 10 10 9 9 8 8 9 11 11 8 9 9 9 10 9 5 -9999 -9999 -9999 -9999 -9999 -9999 -9999 -9999 -9999 -9999 -9999 -9999 -9999 -9999 -9999 -9999 -9999 -9999 -9999 -9999 -9999 -9999 -9999 -9999 -9999 -9999 -9999 -9999 -9999 -9999 -9999 -9999 -9999 -9999 -9999 -9999 -9999 -9999 -9999 -9999 5 7 6 8 8 9 10 8 7 8 9 10 9 10 11 10 10 10 10 8 10 10 10 10 11 11 11 9 10 10 10 10 10 11 12 12 11 11 12 12 13 13 12 13 12 12 13 14 13 14 16 14 13 12 12 13 13 12 12 12 12 12 12 18 19 19 20 22 24 24 25 28 30 33 34 33 33 32 33 32 31 33 32 33 35 33 31 32 33 33 35 36 36 33 42 41 43 47 46 47 51 49 48 50 55 59 63 64 64 71 70 70 73 71 73 80 76 78 84 87 86 95 103 90 87 84 75 69 68 65 58 45 50 54 58 66 68 68 75 72 75 79 82 111 103 116 105 122 106 108 101 93 90 85 74 78 77 79 75 74 63 60 61 63 66 74 63 62 64 57 54 53 49 45 43 43 40 43 40 36 30 15 15 15 15 25 31 35 34 36 40 41 41 44 45 42 44 45 47 48 50 51 58 56 53 49 50 53 53 54 58 63 65 67 75 69 65 68 68 71 72 65 64 65 67 69 71 74 77 79 82 88 91 90 95 102 99 102 103 99 100 102 99 102 104 109 117 124 126 114 107 114 122 130 134 129 122 124 118 119 125 122 127 129 137 148 158 169 177 179 167 167 167 160 159 157 151 156 155 161 166 171 175 182 189 195 197 199 204 203 204 199 210 222 239 259 270 255 260 262 256 259 270 272 281 296 304 308 299 294 300 287 276 277 281 293 305 291 293 295 285 295 318 409 368 352 353 353 345 350 349 348 367 367 373 350 343 375 370 362 367 356 367 357 352 358 390 394 348 337 335 322 337 334 317 313 317 318 308 322 311 314 323 328 335 327 314 313 319 320 308 304 319 333 332 324 315 315 305 320 329 317 314 330 354 351 345 335 328 336 324 311 333 361 332 311 309 322 351 331 340 337 332 324 318 316 314 302 297 297 302 284 294 287 283 284 297 309 307 305 309 326 334 347 371 392 415 433 459 502 531 557 548 547 528 530 540 547 555 568 571 578 579 581 591 592 599 598 580 581 573 567 582 584 580 573 564 558 547 531 513 494 480 470 463 460 454 455 458 464 449 444 443 445 441 443 446 445 448 449 449 450 450 467 521 476 455 453 452 456 452 457 470 469 478 541 577 601 585 576 579 738 912 767 600 605 541 538 535 528 502 570 800 793 625 437 429 437 453 465 492
122 115 116 122 123 121 107 100 95 95 89 86 84 74 70 72 71 75 80 81 86 89 88 86 81 75 72 69 66 62 60 59 59 64 63 61 56 57 63 150 72 56 51 49 46 45 44 44 43 42 40 42 39 38 36 35 35 34 32 30 28 28 28 28 27 27 26 26 25 25 27 26 25 25 25 24 24 23 21 23 21 19 19 18 17 17 16 16 15 14 14 13 13 13 14 13 12 11 13 11 11 11 14 11 11 11 11 11 11 11 12 11 12 12 11 10 10 10 11 11 11 13 12 11 11 11 11 11 10 11 10 10 10 11 10 10 10 10 10 10 10 10 11 11 9 9 9 9 10 11 11 11 10 8 8 10 8 4 -9999 -9999 -9999 -9999 -9999 -9999 -9999 -9999 -9999 -9999 -9999 -9999 -9999 -9999 -9999 -9999 -9999 -9999 -9999 -9999 -9999 -9999 -9999 -9999 -9999 -9999 -9999 -9999 -9999 -9999 -9999 -9999 -9999 -9999 -9999 -9999 -9999 -9999 -9999 -9999 -9999 6 7 7 8 8 10 10 8 7 8 9 9 9 9 9 10 10 7 8 9 10 10 11 12 11 12 9 10 9 9 11 10 12 11 11 12 12 13 13 11 12 12 12 12 13 12 13 13 12 13 13 12 11 12 12 12 13 13 12 12 11 13 18 19 20 20 21 22 24 25 27 29 30 32 33 34 32 32 32 33 32 33 33 34 33 31 30 30 33 35 34 35 37 38 39 41 43 42 44 43 53 58 60 54 70 76 80 76 76 76 71 73 73 72 77 77 72 78 78 86 96 103 90 78 73 75 64 62 62 58 44 53 66 77 81 79 77 81 78 80 87 92 101 111 115 99 105 97 96 93 91 90 82 79 87 83 87 79 67 64 65 69 70 78 73 63 65 72 58 58 56 51 48 47 44 39 39 45 42 32 22 15 15 15 19 28 28 34 38 36 36 38 39 40 37 38 40 46 51 53 55 58 56 48 48 48 51 55 57 60 62 67 71 71 70 66 62 65 69 70 66 63 65 68 72 71 76 81 77 78 83 88 90 92 101 98 96 98 95 99 99 100 103 112 136 127 115 120 110 105 113 119 130 130 129 126 119 118 124 126 127 128 130 140 149 167 173 173 166 154 155 162 161 155 150 150 151 153 159 167 174 177 184 191 193 191 198 199 195 195 203 209 221 234 238 240 243 251 249 251 258 267 273 280 289 303 305 309 295 302 291 277 288 281 293 302 293 285 299 290 292 307 372 367 356 356 352 348 349 354 348 365 375 378 355 332 368 369 374 367 363 369 360 352 354 362 379 372 369 341 330 323 324 316 314 325 315 311 320 317 317 322 319 318 324 316 328 323 321 318 305 317 336 334 334 326 317 312 329 335 321 326 338 360 358 353 346 332 350 326 334 339 364 340 312 313 304 363 345 344 346 344 336 331 327 319 313 311 309 308 301 287 299 294 296 294 309 332 327 339 404 388 394 393 408 422 449 474 497 522 535 527 523 523 519 536 541 545 559 568 573 573 573 584 583 586 585 579 580 566 559 564 573 571 553 546 533 530 515 514 505 493 485 478 465 454 450 453 456 451 444 441 441 440 444 446 447 449 447 449 449 448 451 484 454 448 449 449 450 450 452 454 457 464 483 528 506 508 588 614 571 633 568 549 631 546 528 522 518 523 539 660 892 814 540 435 452 482 520 669
155 129 130 130 122 115 111 110 118 125 110 101 91 80 73 75 75 74 88 94 98 101 95 86 79 74 71 70 71 66 61 61 62 67 67 60 60 61 60 65 61 56 52 51 49 47 47 45 45 45 44 41 41 40 39 36 35 34 32 30 29 29 29 29 28 28 28 27 27 26 28 26 27 26 25 25 24 22 22 21 21 20 19 18 17 17 17 16 15 15 14 14 13 13 13 12 12 12 13 11 11 12 14 12 12 11 11 11 11 11 13 13 11 10 11 11 11 12 13 11 11 13 11 11 10 11 12 11 11 11 10 10 10 11 12 12 11 10 10 10 11 10 11 11 11 11 10 9 10 11 10 10 9 9 8 9 8 6 -9999 -9999 -9999 -9999 -9999 -9999 -9999 -9999 -9999 -9999 -9999 -9999 -9999 -9999 -9999 -9999 -9999 -9999 -9999 -9999 -9999 -9999 -9999 -9999 -9999 -9999 -9999 -9999 -9999 -9999 -9999 -9999 -9999 -9999 -9999 -9999 -9999 -9999 -9999 -9999 -9999 7 7 7 9 10 8 10 9 8 8 9 9 9 9 9 10 9 9 10 11 11 11 12 12 12 13 10 11 10 10 11 11 12 11 11 12 12 11 11 11 12 13 13 13 14 13 12 12 12 12 13 12 12 12 12 12 13 13 12 12 14 18 19 17 18 20 20 21 24 25 25 27 30 32 33 32 32 32 33 33 32 30 34 33 35 34 29 28 33 35 33 35 38 37 38 40 40 41 43 46 55 61 60 67 67 72 73 74 76 77 77 73 71 72 69 86 76 69 76 80 90 100 96 84 83 70 67 77 75 66 52 52 67 76 82 85 81 79 74 82 89 91 102 113 100 91 92 93 105 102 98 87 84 86 93 89 83 78 72 77 70 79 75 82 77 74 60 62 69 59 56 51 49 45 43 39 36 40 47 36 29 16 15 15 15 25 27 34 33 32 31 32 34 38 41 44 49 52 55 56 58 56 52 49 49 50 54 60 63 64 65 67 67 70 72 66 61 64 65 65 65 63 65 68 76 77 80 84 81 83 81 83 87 95 96 93 93 93 92 97 96 94 96 103 114 104 130 114 104 103 103 110 119 125 121 120 125 124 131 122 124 123 130 143 153 161 166 163 154 144 153 162 158 151 144 146 146 152 155 157 176 180 182 187 181 184 187 186 191 200 205 210 221 228 230 233 235 239 244 249 254 263 271 267 273 286 305 313 312 307 287 287 292 288 286 301 285 291 307 299 296 320 359 371 360 356 355 349 353 353 348 362 389 385 356 349 340 358 377 363 368 371 359 357 357 360 373 391 370 338 330 322 317 327 331 339 312 319 325 329 323 320 326 321 324 321 331 327 320 316 322 316 336 346 337 328 323 311 330 337 322 330 340 354 370 366 350 345 352 326 349 371 393 363 330 326 339 363 348 349 355 357 346 341 342 339 332 325 325 316 306 295 290 307 304 322 309 318 334 340 374 402 420 407 412 425 445 465 491 512 514 510 500 509 503 512 525 534 555 559 564 562 568 577 577 575 579 573 578 565 545 556 560 552 546 537 532 525 505 495 493 487 482 475 469 458 450 446 448 456 445 441 440 438 441 442 446 448 445 447 443 444 445 452 446 448 451 453 453 453 454 453 457 458 463 470 470 473 511 539 514 495 508 662 742 571 530 522 514 511 520 551 796 927 699 463 449 467 552 678
146 132 133 138 146 138 148 130 166 191 162 123 128 103 101 90 90 77 80 90 97 103 96 89 86 82 76 73 70 69 67 68 66 71 70 65 66 64 61 60 57 56 55 54 49 49 49 48 48 48 46 44 42 40 38 37 36 33 32 30 31 30 30 31 30 29 28 28 28 29 28 27 27 27 25 25 23 22 21 21 20 20 20 19 19 18 17 16 15 15 14 14 13 13 13 12 12 12 13 12 12 12 14 15 12 12 12 12 12 12 15 13 12 11 10 11 11 12 14 12 12 14 12 10 10 10 12 11 11 10 10 11 11 11 12 12 13 11 11 11 11 10 10 10 11 12 10 12 13 13 11 11 10 10 10 9 8 8 8 8 -9999 -9999 -9999 -9999 -9999 -9999 -9999 -9999 -9999 -9999 -9999 -9999 -9999 -9999 -9999 -9999 -9999 -9999 -9999 -9999 -9999 -9999 -9999 -9999 -9999 -9999 -9999 -9999 -9999 -9999 -9999 -9999 -9999 -9999 -9999 -9999 -9999 -9999 -9999 7 7 7 8 11 8 10 10 9 18 9 9 10 10 10 10 10 10 11 11 9 10 12 12 11 12 11 12 12 12 12 11 11 12 12 12 12 11 11 10 11 12 12 12 12 11 12 12 12 12 13 14 12 12 12 12 13 13 13 16 19 17 16 16 17 19 20 22 27 25 25 27 30 30 31 29 31 32 33 33 33 31 29 35 36 34 31 30 32 30 39 42 48 40 41 39 40 43 40 46 49 47 56 65 66 65 67 67 66 73 74 73 74 75 66 75 80 68 71 80 89 93 98 95 79 74 72 72 70 66 57 49 64 70 70 72 75 75 74 78 85 89 105 97 98 87 85 95 105 108 97 92 88 88 97 89 89 84 78 86 79 88 75 71 68 64 61 58 56 55 51 48 46 44 44 42 35 35 50 41 30 19 15 15 15 27 31 32 29 30 33 37 41 41 45 48 52 53 51 55 54 54 47 46 48 52 57 61 64 64 66 63 65 69 70 67 62 59 63 61 63 63 67 72 73 80 85 86 87 88 84 83 92 97 93 90 87 86 89 91 92 92 94 94 112 113 111 106 105 98 101 105 108 116 118 116 125 129 125 119 120 122 125 137 140 150 148 145 144 139 147 150 151 142 139 144 150 153 150 158 179 177 179 176 170 172 175 180 196 205 214 225 227 222 225 226 228 233 237 244 248 256 262 260 271 291 298 302 306 298 290 292 290 290 279 300 288 294 328 330 295 325 380 369 361 361 365 354 358 359 361 356 389 383 356 353 349 366 389 392 383 371 365 362 363 370 370 370 346 341 323 327 323 330 348 321 312 314 325 325 327 314 329 348 336 332 332 320 314 329 328 328 324 344 345 336 329 314 320 333 332 333 340 351 364 358 349 348 357 342 366 402 395 333 344 321 361 371 353 358 365 364 354 354 358 353 340 332 329 314 306 297 283 307 309 316 331 328 340 344 355 367 380 407 411 423 438 454 482 496 498 485 485 493 504 518 526 539 546 552 562 565 570 568 564 563 568 566 565 552 541 552 555 551 539 532 524 518 508 495 485 481 479 476 466 463 459 446 444 444 444 444 444 439 443 443 446 445 442 444 448 446 447 454 461 474 524 474 459 462 462 454 456 458 460 463 464 470 497 477 477 480 534 725 813 603 534 518 513 508 514 535 735 947 800 552 482 477 511 529
155 139 140 148 159 154 160 144 136 147 150 154 144 124 113 99 87 80 79 90 100 108 95 91 92 88 78 78 74 78 78 75 76 73 71 68 68 65 60 62 60 58 58 55 52 52 53 52 51 49 47 44 43 40 40 39 37 35 34 32 32 31 32 32 31 31 29 28 29 29 28 28 28 27 26 26 24 22 22 21 22 21 21 20 20 20 18 17 16 15 16 15 14 13 13 13 12 13 13 13 13 12 14 14 12 12 12 13 12 14 13 12 11 11 11 11 11 12 13 13 14 13 12 11 11 11 11 12 11 10 11 12 12 13 13 13 14 14 12 11 11 10 10 10 10 10 11 12 13 12 11 11 11 10 9 9 8 8 8 8 -9999 -9999 -9999 -9999 -9999 -9999 -9999 -9999 -9999 -9999 -9999 -9999 -9999 -9999 -9999 -9999 -9999 -9999 -9999 -9999 -9999 -9999 -9999 -9999 -9999 -9999 -9999 -9999 -9999 -9999 -9999 -9999 -9999 -9999 -9999 -9999 -9999 -9999 -9999 8 7 7 8 10 9 9 11 11 10 10 9 10 9 10 10 12 11 11 9 9 10 11 11 12 13 13 13 13 13 13 12 12 12 12 12 12 11 11 11 11 11 11 11 11 11 12 12 12 12 12 13 14 13 12 12 13 13 12 12 13 14 19 23 21 21 23 24 29 26 24 25 27 27 29 26 30 31 32 33 31 31 28 35 34 34 29 34 29 37 52 54 56 41 36 38 38 39 43 46 50 50 58 58 60 62 60 64 62 71 68 74 74 71 70 67 75 66 74 77 82 86 90 96 94 91 76 75 66 63 64 48 57 61 70 72 72 74 76 80 94 85 95 89 87 83 96 95 97 107 106 97 93 96 99 98 93 85 86 90 91 93 82 76 67 59 58 56 55 56 57 53 46 43 40 41 38 31 38 38 30 22 15 15 15 27 29 27 29 33 39 41 43 45 47 52 51 49 47 52 52 49 45 45 49 53 57 60 60 61 65 61 64 68 69 65 62 56 58 60 64 66 71 76 80 83 91 89 92 93 87 86 91 99 97 89 86 84 88 86 88 88 93 92 100 109 102 101 104 98 98 100 108 120 120 119 118 119 125 122 125 128 133 136 147 143 137 133 134 140 147 142 145 139 142 147 157 159 153 158 170 183 175 171 180 183 177 178 184 207 217 219 221 220 222 225 229 236 240 241 239 247 248 254 259 271 288 291 319 296 286 298 300 303 287 306 309 306 313 344 307 298 307 330 357 371 375 357 364 367 369 364 387 371 365 354 345 374 401 411 401 373 376 366 374 396 395 357 350 339 332 327 334 339 353 318 313 316 326 325 329 321 342 346 325 327 323 326 323 336 341 342 329 335 345 347 334 325 332 325 337 339 346 355 369 356 348 357 362 343 363 385 369 346 349 341 376 368 363 367 369 371 368 368 369 356 340 336 330 316 308 295 303 301 311 325 327 338 349 356 364 383 396 398 413 431 442 452 475 473 474 488 491 493 510 519 528 542 545 538 549 558 563 559 555 551 554 551 553 535 534 549 544 538 542 525 512 510 501 490 485 481 473 470 464 453 457 445 441 443 441 442 444 439 443 445 444 450 450 464 463 449 449 451 454 467 534 534 475 474 466 458 458 458 458 458 462 465 468 469 473 493 490 586 736 653 536 517 508 507 514 518 607 738 840 653 561 552 531 531
151 153 205 180 168 172 194 179 155 144 129 131 120 111 104 86 91 90 85 88 111 109 98 95 92 86 84 85 84 81 87 83 79 76 72 72 70 67 65 64 64 63 58 54 54 53 55 54 53 49 46 44 43 43 40 38 39 35 34 33 33 33 32 32 32 30 30 29 30 30 29 28 28 28 27 26 24 23 24 23 22 22 20 20 19 19 18 17 17 16 15 15 14 14 13 13 13 13 14 14 13 13 16 16 12 13 13 13 15 12 12 12 11 12 11 12 12 14 14 14 14 13 13 13 12 11 11 12 12 11 12 12 13 13 13 13 16 13 12 11 11 11 10 10 11 10 10 10 11 11 9 10 10 10 9 10 9 8 7 7 -9999 -9999 -9999 -9999 -9999 -9999 -9999 -9999 -9999 -9999 -9999 -9999 -9999 -9999 -9999 -9999 -9999 -9999 -9999 -9999 -9999 -9999 -9999 -9999 -9999 -9999 -9999 -9999 -9999 -9999 -9999 -9999 -9999 -9999 -9999 -9999 -9999 -9999 -9999 8 8 8 7 10 11 10 11 10 9 10 9 10 9 11 12 11 10 10 9 10 10 12 12 12 12 14 12 12 13 13 13 14 13 13 12 12 11 11 11 10 10 10 11 11 11 11 12 12 12 12 13 13 13 12 12 13 12 12 14 16 21 27 31 29 29 34 30 28 28 24 20 19 20 22 23 25 28 30 31 31 30 30 27 31 28 27 28 32 33 43 55 55 44 34 35 36 43 46 49 52 53 56 54 57 54 60 63 59 63 72 75 74 77 75 65 70 65 73 71 88 93 94 144 183 152 96 84 78 73 65 51 67 67 72 74 77 82 83 87 91 84 90 80 85 87 91 99 102 107 104 99 97 92 91 95 94 89 91 89 97 83 75 73 75 70 61 61 64 63 57 55 48 44 41 36 34 31 30 35 33 28 16 15 15 26 25 26 27 36 44 46 46 43 47 49 47 44 46 47 45 42 41 46 49 53 56 57 57 60 61 61 66 67 67 63 62 57 57 59 64 65 69 72 75 74 78 84 87 89 91 93 95 99 93 90 84 87 87 84 84 87 87 90 96 100 96 98 105 97 97 102 109 105 108 113 116 120 124 136 137 151 153 149 158 142 133 132 138 140 142 137 135 137 143 146 155 170 166 162 174 188 208 195 191 190 184 187 184 190 207 214 217 222 225 228 237 238 232 232 232 238 243 246 254 263 276 288 297 314 302 312 323 321 314 317 320 321 311 348 320 308 306 321 351 375 374 358 367 367 372 371 384 389 370 350 350 350 359 374 414 386 385 372 395 432 400 361 347 333 335 330 331 349 324 315 314 325 334 331 326 328 337 329 324 328 334 353 335 335 347 339 341 350 343 348 332 327 338 330 346 345 355 356 378 369 357 372 377 356 362 364 354 367 352 367 375 363 370 372 378 386 380 379 371 360 349 338 327 317 315 299 304 309 308 336 342 345 349 348 364 377 399 414 421 430 447 460 454 459 500 506 502 492 512 518 529 535 535 529 535 541 548 548 545 543 542 530 539 534 522 529 530 529 531 520 511 506 510 541 525 492 472 463 465 451 452 445 441 439 442 439 439 438 442 441 443 446 449 464 476 450 452 452 455 465 501 517 483 473 466 463 464 478 490 463 461 465 464 464 480 532 490 522 725 788 622 544 512 503 510 528 565 591 669 658 560 547 546 584
147 178 234 221 184 166 173 160 161 150 126 127 114 100 92 86 101 98 86 84 93 95 94 96 96 94 96 93 95 88 88 85 83 80 79 76 72 69 68 104 83 77 63 55 66 60 57 52 63 71 51 46 45 44 41 39 39 37 36 34 35 34 34 34 33 32 31 30 32 30 30 30 29 29 27 27 25 24 23 22 22 21 20 20 19 19 18 18 17 16 16 15 15 14 14 14 13 13 14 14 14 14 14 16 14 13 14 13 16 13 13 13 12 12 13 13 13 14 14 14 14 14 14 13 13 12 11 11 13 13 12 13 13 13 15 15 16 14 14 11 11 11 11 10 11 10 10 10 10 10 9 8 10 10 11 10 9 8 7 7 -9999 -9999 -9999 -9999 -9999 -9999 -9999 -9999 -9999 -9999 -9999 -9999 -9999 -9999 -9999 -9999 -9999 -9999 -9999 -9999 -9999 -9999 -9999 -9999 -9999 -9999 -9999 -9999 -9999 -9999 -9999 -9999 -9999 -9999 -9999 -9999 -9999 -9999 -9999 8 8 8 8 9 8 8 10 9 9 10 10 10 11 12 10 10 10 10 10 10 12 12 12 12 13 12 12 10 11 13 13 12 12 10 11 11 11 11 11 11 10 10 10 11 11 13 12 12 12 13 14 14 13 12 12 14 12 12 19 33 35 42 43 42 44 44 37 36 32 25 20 18 18 21 21 21 21 24 29 30 29 29 28 26 25 30 30 30 30 31 41 38 31 33 31 38 39 46 49 49 47 54 52 53 51 58 54 55 62 64 66 69 71 73 67 65 72 89 101 79 82 95 158 135 114 90 82 69 63 57 50 64 60 66 71 78 84 97 103 93 79 83 76 85 96 92 98 108 105 95 88 89 83 86 87 87 84 91 76 77 70 69 68 66 66 64 66 67 64 56 57 51 47 43 38 36 33 29 30 29 29 18 15 16 25 26 31 30 40 48 49 42 39 45 41 40 39 43 40 37 36 42 47 47 52 53 54 56 59 58 61 63 63 64 61 61 58 58 59 60 61 64 65 69 74 77 80 81 83 89 94 97 98 93 89 84 79 83 81 82 88 85 88 94 99 92 91 97 93 95 102 100 96 105 121 121 123 124 125 137 146 146 151 153 140 136 128 136 130 131 132 134 142 149 150 155 173 171 164 166 186 198 224 217 215 212 199 196 194 201 212 214 222 222 228 235 235 225 224 228 231 237 243 246 250 264 272 276 298 320 305 322 339 328 321 324 327 327 342 336 296 306 330 349 386 369 361 366 367 385 392 390 389 374 360 353 352 360 371 406 412 408 386 410 450 423 364 343 337 333 344 344 345 327 351 328 351 341 336 332 336 325 326 343 336 327 347 336 333 347 338 347 357 346 347 329 339 342 335 353 362 363 373 388 379 358 369 383 351 379 382 379 377 374 390 376 369 368 372 382 390 385 376 371 361 349 339 332 321 319 314 304 314 313 316 326 345 362 360 377 395 407 420 424 419 427 441 453 469 491 534 523 494 501 515 526 528 527 521 520 530 538 536 529 536 533 527 529 532 512 518 520 533 528 568 578 563 631 652 543 516 487 461 456 451 446 444 443 442 438 438 438 439 445 444 446 446 451 458 466 462 460 454 455 458 481 531 490 473 481 479 476 472 467 462 462 466 467 466 473 480 524 547 723 853 844 716 585 519 542 565 542 554 593 608 577 546 591 596
157 155 171 182 170 151 139 141 148 156 136 124 107 100 91 91 95 90 85 88 97 99 98 102 100 102 102 102 104 103 98 92 90 86 83 78 74 71 71 116 90 70 62 58 60 58 55 54 64 59 50 48 48 46 44 44 42 40 37 36 36 35 36 35 34 33 31 31 33 32 31 32 30 29 28 27 26 25 24 22 22 21 20 20 19 19 18 18 17 16 16 15 15 15 14 14 13 13 13 13 14 14 15 15 13 14 13 13 16 14 14 13 13 13 13 13 14 15 15 14 13 14 15 14 13 12 11 11 12 14 14 13 14 14 15 15 15 13 13 12 12 11 12 11 12 10 11 10 10 10 9 9 10 11 11 10 10 8 8 7 4 -9999 -9999 -9999 -9999 -9999 -9999 -9999 -9999 -9999 -9999 -9999 -9999 -9999 -9999 -9999 -9999 -9999 -9999 -9999 -9999 -9999 -9999 -9999 -9999 -9999 -9999 -9999 -9999 -9999 -9999 -9999 -9999 -9999 -9999 -9999 -9999 -9999 -9999 8 8 8 8 9 8 8 11 9 10 10 10 11 11 10 9 10 10 10 10 9 11 12 11 12 12 12 13 12 12 12 12 13 13 12 9 11 11 11 11 11 10 10 11 11 11 11 12 12 12 12 14 14 15 13 13 13 12 12 17 48 56 60 67 54 58 56 47 43 36 26 20 17 17 18 19 18 18 19 22 27 30 32 31 28 26 30 30 31 28 32 32 28 27 30 36 36 38 39 47 49 45 47 43 46 48 53 59 68 63 61 63 70 70 69 64 62 67 84 87 71 81 85 102 105 97 85 75 68 64 56 49 52 59 68 74 81 89 102 99 94 80 73 82 88 97 102 99 103 108 99 92 79 73 69 68 67 71 79 71 66 63 60 59 58 57 56 58 61 59 58 55 52 49 43 41 37 34 30 26 30 27 19 15 16 26 31 35 38 41 48 45 33 37 39 35 35 38 39 36 37 41 40 45 51 51 51 53 56 57 55 59 60 61 61 58 56 57 59 62 64 64 64 65 72 76 77 78 81 87 95 91 91 93 92 89 89 83 81 76 79 84 81 88 91 95 87 87 93 92 97 98 95 97 111 124 119 123 130 133 138 142 139 143 147 135 137 124 126 124 130 134 137 142 142 155 167 188 190 169 171 176 183 217 224 218 215 212 207 203 207 209 213 214 216 222 222 222 223 230 231 232 236 242 246 254 266 281 279 284 283 308 312 338 344 328 337 356 343 345 356 316 303 334 337 383 379 365 368 371 385 390 399 398 378 363 363 353 357 369 416 439 417 428 439 457 404 353 353 343 336 358 353 344 339 343 330 339 353 358 348 334 341 327 345 333 349 364 347 359 353 338 351 353 353 357 339 353 347 337 354 376 380 386 388 378 366 380 390 356 384 393 392 397 383 394 374 368 379 369 372 384 390 379 361 357 351 346 335 326 334 308 304 316 318 320 329 350 365 369 371 391 395 404 402 411 432 438 458 492 495 545 552 522 508 517 522 522 514 513 514 526 529 525 515 524 522 518 523 525 514 515 529 558 562 622 678 637 631 568 529 494 471 467 458 450 447 444 444 445 439 438 439 439 443 443 453 455 456 457 463 476 488 458 460 462 465 470 471 480 527 545 486 481 468 468 466 475 474 468 472 480 593 553 637 825 826 697 697 573 554 549 522 550 553 633 664 588 603 558
154 146 139 135 130 128 126 124 132 136 124 114 105 94 88 90 93 92 88 93 100 100 106 110 105 109 112 116 124 123 111 101 95 96 89 81 77 73 71 71 70 67 62 62 62 60 57 57 56 53 53 52 51 50 46 45 42 41 37 37 37 37 38 37 35 34 34 33 33 33 32 32 31 31 29 28 28 25 24 24 23 21 21 20 19 19 18 17 17 17 16 15 15 14 14 13 13 13 13 14 14 13 16 16 13 14 15 14 15 15 14 14 14 13 14 14 15 16 15 15 15 14 15 15 14 13 13 12 13 12 13 14 15 15 14 15 16 14 13 12 13 12 12 13 13 12 11 10 10 9 9 9 10 11 10 11 10 9 8 8 6 4 -9999 -9999 -9999 -9999 -9999 -9999 -9999 -9999 -9999 -9999 -9999 -9999 -9999 -9999 -9999 -9999 -9999 -9999 -9999 -9999 -9999 -9999 -9999 -9999 -9999 -9999 -9999 -9999 -9999 -9999 -9999 -9999 -9999 -9999 -9999 -9999 -9999 10 8 8 8 9 8 7 11 10 10 10 9 12 8 9 9 10 11 10 10 9 10 11 10 11 12 11 12 12 13 13 13 12 12 14 10 10 10 11 11 11 11 11 11 11 11 11 12 12 12 12 13 13 16 14 12 12 12 12 14 24 34 56 136 47 85 75 54 62 49 31 19 17 16 17 17 17 18 18 21 22 25 28 30 32 28 24 23 30 29 32 27 28 32 36 36 37 38 42 45 44 40 45 53 54 58 64 68 69 70 66 63 71 72 74 74 63 59 70 69 80 87 93 87 89 87 88 84 76 72 59 48 47 58 66 70 76 81 88 86 84 76 77 86 90 97 101 109 112 101 91 79 73 70 67 64 63 66 71 66 63 60 58 55 53 54 52 54 56 55 53 50 48 46 44 41 38 32 29 28 25 23 15 15 15 25 29 31 35 38 46 37 29 35 32 32 34 33 35 34 37 38 41 44 48 50 51 54 54 53 53 57 58 57 54 55 54 61 60 62 68 70 69 70 71 78 85 84 88 92 92 88 87 87 88 85 85 84 81 78 75 80 80 82 89 93 84 87 91 95 97 94 89 99 107 107 110 122 135 132 125 127 139 147 139 126 127 119 121 129 142 138 139 138 142 176 175 169 157 162 169 176 185 214 245 225 211 205 204 206 204 205 209 212 213 216 218 220 225 230 237 241 236 240 246 260 265 277 277 280 292 319 322 347 359 343 363 394 378 373 386 323 316 322 325 359 373 370 367 385 392 399 411 381 366 368 367 356 357 362 406 434 430 448 447 454 384 374 362 349 343 371 373 339 340 336 339 343 359 374 354 338 340 339 347 352 359 358 361 359 360 339 348 351 351 354 345 351 358 342 360 370 379 387 384 373 371 389 392 368 374 396 394 410 394 387 385 382 379 370 377 383 407 391 361 353 348 346 357 326 323 318 305 304 320 326 340 358 368 368 377 377 381 388 398 412 417 418 467 500 536 566 570 545 533 511 509 518 532 523 515 513 518 517 506 505 508 512 521 522 513 506 537 640 634 645 564 525 552 524 478 469 465 464 459 449 445 442 443 446 439 436 437 438 441 442 451 463 470 471 468 475 472 459 462 466 468 467 468 477 538 626 509 481 472 476 470 483 471 470 471 473 558 552 552 649 679 628 613 605 550 527 545 547 597 676 697 630 569 550
157 137 128 123 117 115 116 115 113 109 106 102 94 90 94 95 95 94 90 93 105 109 116 113 112 120 128 148 169 156 126 112 102 94 87 83 79 77 75 74 71 66 65 66 64 61 61 62 59 57 54 56 53 51 50 48 45 43 39 38 38 38 39 37 36 35 37 34 34 34 33 33 31 30 29 28 27 25 25 24 23 22 22 21 20 19 18 18 17 17 16 15 15 14 14 14 13 13 14 13 13 13 14 17 14 14 14 15 16 16 15 15 16 14 14 14 14 15 15 14 15 16 16 14 14 14 13 14 13 14 13 14 16 15 13 15 15 14 14 14 13 13 12 13 13 12 12 11 11 12 12 11 9 8 10 11 10 7 9 10 8 7 -9999 -9999 -9999 -9999 -9999 -9999 -9999 -9999 -9999 -9999 -9999 -9999 -9999 -9999 -9999 -9999 -9999 -9999 -9999 -9999 -9999 -9999 -9999 -9999 -9999 -9999 -9999 -9999 -9999 -9999 -9999 -9999 -9999 -9999 -9999 -9999 9 9 9 9 9 9 8 7 9 10 10 9 10 12 10 10 10 11 10 9 10 10 11 11 11 11 13 13 11 11 11 11 12 12 12 13 11 10 10 10 10 11 11 11 11 11 11 11 12 12 12 12 12 13 15 13 12 12 11 11 13 22 28 33 44 36 58 54 67 103 74 32 19 15 15 15 16 17 17 17 18 18 18 20 23 27 31 32 22 27 28 24 23 30 31 32 35 35 38 42 37 38 40 44 48 45 49 59 66 67 66 70 69 71 70 77 78 77 66 60 70 79 85 91 81 84 83 87 85 73 64 57 50 44 68 61 67 68 75 83 84 73 71 76 88 96 102 107 110 113 110 89 79 71 68 65 62 62 61 69 63 63 58 57 53 51 51 51 50 53 54 52 47 45 42 43 42 40 36 35 28 25 18 15 15 15 24 25 30 28 30 42 32 29 31 33 34 36 38 37 38 36 38 38 42 44 48 56 58 51 49 51 52 56 54 53 54 56 61 64 68 74 77 75 73 75 81 87 83 87 89 90 87 84 85 84 81 80 84 83 77 76 76 78 83 89 88 83 87 90 94 92 90 89 93 93 96 98 109 113 113 119 127 148 166 139 124 126 120 128 145 159 146 146 142 143 153 153 158 165 159 165 175 181 206 231 219 203 201 204 205 205 206 209 215 231 253 234 225 225 230 237 246 245 242 247 260 258 262 268 279 282 290 309 336 369 374 427 417 445 436 363 318 324 318 324 359 377 378 375 381 392 400 401 371 373 372 363 360 367 359 364 373 397 437 454 446 402 427 396 367 352 367 368 346 359 348 356 390 388 368 347 343 340 349 358 365 364 363 356 341 335 343 340 354 364 364 360 360 369 353 366 405 400 399 388 374 374 388 394 375 374 386 407 407 390 387 386 374 369 369 376 379 396 396 366 347 341 342 343 334 346 319 310 308 325 330 339 362 359 354 367 372 380 383 394 405 400 408 436 489 525 531 523 487 499 496 516 536 543 523 514 508 510 498 488 503 501 499 502 504 506 598 585 538 486 497 541 509 489 480 473 464 460 461 463 457 449 441 441 445 442 436 438 457 450 443 450 465 500 517 491 500 479 465 465 469 472 473 472 496 511 554 629 530 496 482 477 486 478 475 474 485 490 506 504 521 546 532 519 528 532 565 574 569 655 660 657 561 551 523
151 137 133 122 115 109 110 106 107 103 99 97 96 96 97 98 101 96 93 94 98 106 107 112 121 144 150 233 329 264 215 126 103 94 91 91 86 84 105 81 74 70 66 66 64 62 65 69 65 63 63 63 67 58 54 52 48 45 41 40 40 41 40 38 37 38 38 36 36 35 34 32 30 29 28 28 27 26 25 25 24 23 22 21 20 20 19 19 18 17 17 16 15 15 14 14 13 13 14 13 13 13 14 16 16 14 14 14 15 15 15 14 16 15 14 16 15 17 15 15 14 15 17 16 15 14 13 15 14 16 14 15 16 15 14 16 16 14 15 15 14 14 13 14 13 12 12 13 11 12 10 10 9 8 9 10 9 9 9 9 7 7 8 -9999 -9999 -9999 -9999 -9999 -9999 -9999 -9999 -9999 -9999 -9999 -9999 -9999 -9999 -9999 -9999 -9999 -9999 -9999 -9999 -9999 -9999 -9999 -9999 -9999 -9999 -9999 -9999 -9999 -9999 -9999 -9999 -9999 -9999 4 10 8 9 9 8 8 8 7 9 10 10 10 12 13 12 11 11 10 9 9 9 9 10 11 10 12 12 12 11 10 11 11 11 11 11 12 11 10 11 11 11 11 11 11 11 11 11 11 11 11 12 12 12 13 14 12 12 12 11 12 13 18 23 24 27 28 34 36 39 41 37 26 16 15 15 15 15 16 17 17 17 18 19 19 20 21 27 32 26 22 19 30 31 28 28 31 30 32 35 34 38 40 44 42 44 47 52 51 54 58 62 68 70 67 68 71 74 77 75 61 68 77 83 85 82 81 78 83 79 68 68 60 51 51 134 86 79 81 85 87 77 65 76 81 89 98 97 95 99 110 103 93 87 72 67 64 61 58 58 68 66 57 55 53 53 48 47 46 44 46 49 48 49 45 43 40 42 42 39 35 26 24 17 15 16 15 23 22 24 24 27 36 27 27 30 32 41 42 44 42 41 43 38 38 42 42 47 55 59 48 46 47 48 51 52 57 58 57 58 62 67 71 74 77 77 79 84 83 81 84 84 85 83 81 85 83 79 77 77 77 75 76 74 76 82 83 83 82 90 89 85 89 91 87 85 89 94 104 105 108 114 130 139 153 145 129 123 128 138 145 158 159 157 159 151 146 150 164 173 174 161 172 173 182 194 213 210 199 202 208 205 205 206 214 222 232 259 261 236 240 232 241 258 259 248 249 248 254 273 299 319 306 287 285 351 384 446 438 460 481 454 364 345 330 342 335 336 385 387 377 379 396 402 379 383 386 369 366 365 376 372 366 371 375 414 453 440 436 454 382 361 358 402 387 360 383 359 378 442 417 366 358 351 356 371 363 365 383 363 361 349 344 338 336 383 406 398 390 361 373 353 377 392 403 393 378 378 366 388 394 389 395 401 414 406 393 391 381 378 372 371 370 370 376 373 355 348 340 342 336 331 327 326 330 316 322 334 337 351 353 362 371 372 379 384 389 396 401 413 443 473 485 478 490 465 481 499 515 524 531 520 508 501 493 476 485 495 495 488 486 484 477 500 474 462 459 481 536 583 507 506 499 460 457 464 507 466 450 442 439 444 438 436 447 457 444 441 448 456 475 499 503 510 479 472 472 483 475 477 479 478 492 534 636 607 540 509 495 491 496 495 498 513 501 511 500 506 541 577 605 632 590 565 540 570 632 614 600 617 657 571
168 154 144 135 124 112 107 105 103 100 101 97 98 98 98 103 104 102 98 100 98 99 104 106 113 129 187 210 214 164 143 112 101 101 101 98 90 96 131 92 78 73 70 67 64 68 70 70 72 74 71 67 62 59 55 54 52 48 44 41 42 43 41 41 39 40 40 38 36 36 35 32 31 31 30 30 29 27 26 26 25 24 23 22 21 20 19 18 18 17 17 16 15 15 14 14 14 14 14 14 13 14 14 16 18 15 14 14 16 15 16 15 15 16 15 17 16 16 16 16 15 16 17 16 15 16 16 15 15 15 15 15 16 15 14 17 15 13 16 13 14 13 15 15 14 13 14 14 14 14 11 11 10 11 9 9 8 9 9 9 8 7 7 6 -9999 -9999 -9999 -9999 -9999 -9999 -9999 -9999 -9999 -9999 -9999 -9999 -9999 -9999 -9999 -9999 -9999 -9999 -9999 -9999 -9999 -9999 -9999 -9999 -9999 -9999 -9999 -9999 -9999 -9999 -9999 -9999 -9999 6 11 8 9 6 6 7 8 10 9 9 9 10 12 11 11 11 11 9 8 9 9 9 9 10 11 11 11 10 12 11 10 11 10 11 10 11 11 10 11 11 11 11 11 11 11 11 11 11 11 12 12 12 11 13 12 12 11 12 12 12 12 14 18 20 21 23 23 24 25 26 23 16 15 15 16 16 15 16 16 16 17 17 18 19 18 19 19 24 26 19 24 32 33 32 30 31 31 33 36 39 41 46 53 58 60 51 53 58 52 57 71 68 71 73 67 68 70 68 72 63 61 71 75 75 73 76 72 80 75 66 59 53 41 45 64 66 70 73 78 80 71 66 72 86 95 90 89 93 97 109 103 90 97 71 65 60 59 57 57 61 65 61 56 50 49 50 45 45 43 44 47 44 48 45 42 38 40 42 37 32 26 24 17 15 15 15 19 22 22 23 25 28 26 26 35 35 38 41 47 50 47 47 45 40 40 42 47 50 56 55 47 47 49 51 56 59 62 62 61 62 65 67 68 73 76 82 83 80 79 82 81 83 82 80 82 80 79 75 72 75 71 72 71 77 84 78 81 86 89 83 81 85 87 82 90 94 97 105 113 115 121 121 127 126 128 121 120 133 152 149 154 163 167 168 156 153 156 174 170 180 174 200 204 192 208 241 244 217 207 219 209 203 207 217 221 233 231 238 250 240 238 250 257 266 256 264 255 260 269 285 296 323 299 293 316 371 419 467 492 505 461 385 355 350 376 345 355 365 377 386 386 392 390 382 393 386 373 371 372 372 392 373 383 378 403 443 434 457 460 378 392 378 428 403 375 422 364 359 429 428 391 367 360 388 372 363 372 386 379 374 348 359 342 339 362 378 396 380 366 361 359 361 380 392 380 385 393 373 398 396 395 396 403 423 409 410 391 382 375 372 369 367 367 364 358 347 341 337 335 330 326 334 334 326 312 324 337 344 349 356 362 368 374 382 384 389 394 403 419 436 446 443 445 444 457 482 492 505 507 513 511 504 500 485 476 476 479 482 479 477 472 461 454 448 455 453 463 563 551 512 473 457 454 455 461 528 486 454 444 437 436 436 437 444 439 437 441 445 451 458 465 472 480 489 487 487 495 480 479 486 487 512 580 655 680 654 645 565 518 575 616 596 564 513 482 481 488 513 548 607 622 614 607 562 563 599 665 668 717 653 540
